ply
format ascii 1.0
element vertex 1016
property double x
property double y
property double z
property uchar red
property uchar green
property uchar blue
end_header
-0.415247 0.472761 3.21396 0 255 0
2.1358 0.687351 2.88179 0 255 0
-11.6161 -6.00603 -0.138186 0 255 0
-13.7444 -6.39379 0.657552 0 255 0
-3.97316 -1.1803 1.72453 0 255 0
-7.19858 -1.06717 5.94809 0 255 0
-9.64684 -0.904298 5.80594 0 255 0
-2.72326 -0.652097 2.18451 0 255 0
-9.83157 -5.14018 0.147775 0 255 0
-12.9953 -6.15626 0.570506 0 255 0
-0.321676 0.551847 2.59574 0 255 0
0.775305 0.512824 3.36436 0 255 0
-5.41288 -2.18476 1.20638 0 255 0
-6.63673 -0.971371 5.62721 0 255 0
-6.72316 -0.997294 5.71244 0 255 0
0.110476 0.362862 2.73241 0 255 0
-11.5799 12.2705 -38.608 255 255 255
6.90682 0.571408 -25.3932 255 255 255
13.6893 4.20456 -31.758 255 255 255
13.7382 3.95246 -31.8385 255 255 255
12.4185 21.8797 -50.6092 255 255 255
-0.241638 2.57009 -23.0487 255 255 255
6.31776 12.8001 -47.2166 255 255 255
-0.00556777 1.95391 -22.5346 255 255 255
-0.979973 2.63533 -23.6147 255 255 255
-9.01716 13.7094 -39.9363 255 255 255
6.7529 18.2588 -48.9034 255 255 255
-9.79358 12.4121 -40.448 255 255 255
-4.47587 -7.87073 -23.2991 255 255 255
-9.73108 13.0524 -39.7997 255 255 255
-13.96 7.86052 -40.6532 255 255 255
-12.313 10.3992 -40.3728 255 255 255
-11.5931 10.9476 -40.4293 255 255 255
-15.621 13.1289 -36.11 255 255 255
-12.639 13.1221 -37.3405 255 255 255
-14.9176 10.6953 -38.2007 255 255 255
-15.9736 9.48806 -38.5672 255 255 255
-15.7881 9.25114 -38.8202 255 255 255
-13.8854 12.5659 -37.1798 255 255 255
-12.7657 12.6694 -37.8361 255 255 255
-14.9827 11.5765 -37.2994 255 255 255
-12.5863 13.0841 -37.6556 255 255 255
-14.5707 12.3099 -36.9255 255 255 255
-13.2722 11.4623 -38.184 255 255 255
-11.5933 11.1507 -40.2659 255 255 255
4.56812 -3.35554 -22.5585 255 255 255
-7.32903 14.7085 -40.4208 255 255 255
-13.6182 11.2114 -38.4962 255 255 255
-11.4964 11.6228 -39.8783 255 255 255
-11.1027 13.2461 -38.6267 255 255 255
-12.6477 12.9478 -37.5362 255 255 255
-10.0531 12.931 -39.7521 255 255 255
-10.0099 13.0752 -39.7327 255 255 255
-14.097 10.0688 -40.5922 255 255 255
-15.0483 12.9198 -35.8879 255 255 255
-10.5382 14.8523 -37.5914 255 255 255
-3.79013 16.7366 -41.4552 255 255 255
-0.439412 18.4517 -42.6404 255 255 255
4.48827 20.011 -45.5569 255 255 255
-4.08209 17.1748 -40.9024 255 255 255
-6.47791 16.2682 -39.6493 255 255 255
1.8275 19.5216 -43.755 255 255 255
2.45883 0.229794 -21.7721 255 255 255
1.08146 2.37414 -22.2157 255 255 255
-2.34783 3.07205 -26.8184 255 255 255
12.8782 6.1987 -32.3821 255 255 255
-0.00174254 3.42455 -23.6288 255 255 255
3.06991 2.33057 -22.6645 255 255 255
1.83804 2.1002 -22.2169 255 255 255
1.12141 2.12095 -22.2564 255 255 255
6.92034 18.1317 -49.0725 255 255 255
-0.0668364 3.1171 -23.3927 255 255 255
0.486238 1.81701 -22.2582 255 255 255
6.92074 18.1328 -49.0737 255 255 255
13.3021 11.1316 -38.0629 255 255 255
6.85458 16.9867 -49.9434 255 255 255
-1.23098 0.974256 -23.0961 255 255 255
0.407293 15.5021 -45.8654 255 255 255
12.6802 6.08981 -32.9136 255 255 255
0.246053 -1.77984 -21.8605 255 255 255
-2.3138 -3.12368 -23.6687 255 255 255
2.37227 -3.17336 -21.3744 255 255 255
1.94362 1.97615 -22.1255 255 255 255
0.611826 -0.562558 -22.0203 255 255 255
0.722859 -1.24996 -22.0643 255 255 255
13.3464 5.66828 -31.5384 255 255 255
1.54903 -0.661137 -21.8976 255 255 255
15.0901 -0.44927 -31.6193 255 255 255
0.159979 -0.825374 -22.2601 255 255 255
3.41531 3.9008 -24.7322 255 255 255
6.28895 11.744 -45.3063 255 255 255
2.28514 -1.01715 -22.0632 255 255 255
0.168757 -0.697496 -22.2081 255 255 255
0.127093 -0.99773 -22.3141 255 255 255
7.93827 19.777 -48.7412 255 255 255
11.5101 20.3755 -50.8442 255 255 255
13.6174 4.67578 -31.4928 255 255 255
1.82121 -0.978432 -22.0082 255 255 255
3.5435 16.0239 -48.0814 255 255 255
2.67493 1.0897 -21.9849 255 255 255
1.19447 0.0528914 -21.815 255 255 255
1.18823 -0.178113 -21.8045 255 255 255
2.5771 -0.575734 -21.9746 255 255 255
-0.461372 0.0494821 -22.443 255 255 255
-0.802174 0.0305329 -22.6498 255 255 255
2.5346 14.7121 -48.2787 255 255 255
12.8397 6.88007 -31.8942 255 255 255
-15.7786 11.9 -36.2771 255 255 255
-5.6448 -7.59247 -23.6911 255 255 255
-14.405 11.8376 -37.4553 255 255 255
-15.6436 11.1113 -37.0827 255 255 255
-10.4844 14.4956 -38.0073 255 255 255
-11.2198 13.9814 -37.8462 255 255 255
-10.7461 12.8335 -39.2985 255 255 255
-14.3751 12.4152 -36.9842 255 255 255
-15.2025 12.7789 -35.8217 255 255 255
-12.7033 12.4889 -38.0941 255 255 255
-12.376 14.2193 -36.6967 255 255 255
-13.1987 12.2995 -37.9929 255 255 255
-14.4146 13.2384 -36.001 255 255 255
-12.3095 13.8759 -37.0878 255 255 255
-13.1365 12.4707 -37.7783 255 255 255
-13.9721 11.8677 -37.0782 255 255 255
-15.2803 13.1844 -36.1987 255 255 255
-3.12573 3.26709 -28.0454 255 255 255
-12.5388 13.2555 -37.6477 255 255 255
-9.7436 13.3976 -39.4804 255 255 255
0.150622 -3.00042 -21.5266 255 255 255
-0.538751 -2.87684 -21.7694 255 255 255
0.220583 -3.00342 -21.4867 255 255 255
-0.0675505 2.82609 -23.1525 255 255 255
-1.60143 2.14456 -23.9435 255 255 255
1.54426 17.883 -44.8344 255 255 255
1.7168 1.07977 -21.8291 255 255 255
-1.64193 16.6359 -43.2082 255 255 255
12.8788 7.02271 -31.7957 255 255 255
-0.461449 16.9502 -43.9351 255 255 255
-1.77791 16.6955 -43.1138 255 255 255
1.50578 0.851417 -21.7778 255 255 255
13.1739 4.78244 -32.4473 255 255 255
-1.33552 17.0497 -43.0198 255 255 255
3.83517 16.719 -47.702 255 255 255
10.751 21.9627 -49.2029 255 255 255
-3.93018 16.3674 -41.5245 255 255 255
1.59332 0.256823 -21.7611 255 255 255
2.30036 1.10044 -21.8691 255 255 255
13.2815 11.4668 -37.8938 255 255 255
10.6886 21.0432 -49.8066 255 255 255
1.96976 2.22895 -22.3259 255 255 255
5.80817 20.7768 -45.8898 255 255 255
1.26467 19.5709 -43.2191 255 255 255
13.3137 12.7428 -37.1407 255 255 255
2.35805 1.72382 -22.0536 255 255 255
13.9043 10.8344 -36.7834 255 255 255
-0.667746 0.666148 -22.5829 255 255 255
13.6323 3.87696 -32.1913 255 255 255
13.6199 20.7572 -52.3947 255 255 255
-2.11071 15.2518 -42.6306 255 255 255
-1.24826 3.12087 -24.3191 255 255 255
6.97624 18.6864 -48.5177 255 255 255
6.2851 20.7847 -46.3381 255 255 255
-0.53517 0.483865 -22.43 255 255 255
0.0559819 0.861639 -22.1689 255 255 255
0.94815 0.299415 -21.8413 255 255 255
0.243322 1.08334 -22.1265 255 255 255
6.89786 19.5299 -48.0265 255 255 255
0.844142 17.254 -44.8246 255 255 255
11.3197 21.7208 -49.8505 255 255 255
3.81359 18.7151 -45.7321 255 255 255
8.53975 21.2513 -47.9679 255 255 255
10.7387 21.3447 -49.7659 255 255 255
2.90551 1.18225 -22.0417 255 255 255
2.09454 1.04683 -21.8213 255 255 255
10.4572 20.9127 -49.6393 255 255 255
14.5374 22.8979 -51.5965 255 255 255
0.238376 0.945689 -22.104 255 255 255
1.79122 1.1921 -21.8522 255 255 255
15.871 23.4035 -52.1772 255 255 255
13.313 11.664 -37.8202 255 255 255
8.02824 18.6258 -49.5171 255 255 255
9.0351 18.7844 -50.4365 255 255 255
-0.0816482 0.281705 -22.21 255 255 255
10.5656 21.4919 -49.461 255 255 255
12.5218 22.1212 -50.4472 255 255 255
0.240798 1.08904 -22.1188 255 255 255
13.7074 10.3259 -37.5958 255 255 255
-3.59941 16.4542 -41.879 255 255 255
2.522 18.0747 -45.5177 255 255 255
1.86623 -0.00499487 -21.7593 255 255 255
-3.79629 17.5371 -40.8264 255 255 255
1.33291 19.3608 -43.4496 255 255 255
-3.1597 15.9426 -42.5802 255 255 255
-3.58038 16.6349 -41.695 255 255 255
13.1748 4.94678 -32.51 255 255 255
13.4329 11.2373 -37.6211 255 255 255
-0.0151779 2.59646 -22.9936 255 255 255
0.163482 16.4528 -44.7018 255 255 255
1.02985 1.75924 -22.1151 255 255 255
0.652614 0.693563 -21.94 255 255 255
-2.09675 15.3977 -42.6578 255 255 255
5.34469 19.2963 -46.8296 255 255 255
3.85768 16.9201 -47.5784 255 255 255
-1.58301 1.59275 -23.6373 255 255 255
-0.142611 2.57721 -23.0126 255 255 255
-3.99201 15.0628 -42.8842 255 255 255
-3.79342 16.7284 -41.4068 255 255 255
-1.34266 16.4095 -43.7324 255 255 255
-0.919878 1.76502 -23.0541 255 255 255
10.2137 21.8719 -48.8586 255 255 255
0.872332 0.83606 -21.8411 255 255 255
-0.622213 16.6823 -44.0913 255 255 255
-0.405353 2.35422 -23.0773 255 255 255
2.70683 19.6861 -44.3584 255 255 255
0.750986 0.347056 -21.8859 255 255 255
-1.48971 17.1677 -42.9997 255 255 255
13.428 5.77773 -31.2073 255 255 255
3.16036 0.634659 -21.9962 255 255 255
0.236705 1.87788 -22.3875 255 255 255
12.9985 6.59477 -31.8908 255 255 255
3.07594 1.76451 -22.2952 255 255 255
13.1739 4.78244 -32.4473 255 255 255
0.491055 0.476548 -21.9703 255 255 255
1.43876 1.7068 -21.9924 255 255 255
0.0366183 17.7211 -43.7998 255 255 255
0.157018 15.569 -45.6679 255 255 255
0.951243 19.4957 -43.1216 255 255 255
1.3528 1.58015 -21.9898 255 255 255
1.35641 17.7674 -44.7784 255 255 255
-1.12299 17.7633 -42.812 255 255 255
0.888111 18.3145 -43.7851 255 255 255
0.497975 0.870668 -22.0033 255 255 255
0.944654 19.4761 -43.0743 255 255 255
0.146665 0.47646 -22.1018 255 255 255
1.56225 1.6926 -21.9868 255 255 255
1.07421 18.6922 -43.7762 255 255 255
10.4654 21.8805 -49.0317 255 255 255
0.483278 2.34884 -22.4743 255 255 255
0.923926 2.55022 -22.6208 255 255 255
1.04806 0.814113 -21.8559 255 255 255
13.687 11.3384 -36.9849 255 255 255
-0.560629 2.64192 -23.2985 255 255 255
13.6278 3.47447 -32.4589 255 255 255
6.7233 18.4606 -48.8315 255 255 255
2.53185 18.1579 -44.9715 255 255 255
-3.31763 15.8239 -42.7104 255 255 255
13.6682 4.28101 -31.7091 255 255 255
15.6635 23.3225 -52.165 255 255 255
12.9373 12.2426 -38.1696 255 255 255
12.7766 22.4671 -50.499 255 255 255
-1.11551 2.70837 -23.7752 255 255 255
3.70987 1.15825 -22.3547 255 255 255
-0.641452 0.869348 -22.5697 255 255 255
-0.947346 1.44828 -22.9103 255 255 255
1.34512 0.935834 -21.8377 255 255 255
13.3076 20.8409 -52.4181 255 255 255
-6.2215 16.1867 -39.9044 255 255 255
-0.729197 16.4714 -44.1072 255 255 255
-3.30007 15.9859 -42.6115 255 255 255
-1.42116 18.5277 -41.902 255 255 255
-1.18937 18.7468 -41.9204 255 255 255
6.7759 20.3173 -47.2476 255 255 255
1.19468 18.6618 -43.7573 255 255 255
-3.74617 17.2999 -41.0589 255 255 255
9.62081 21.2905 -48.7364 255 255 255
-3.68759 17.2098 -41.2349 255 255 255
-8.3384 14.5262 -39.7154 255 255 255
0.494203 -1.89566 -21.848 255 255 255
0.0423794 -1.83287 -21.9696 255 255 255
-1.88635 -3.12975 -23.1768 255 255 255
-0.788745 -2.94514 -21.913 255 255 255
-2.01539 -3.5864 -23.5853 255 255 255
-4.91434 17.0467 -40.315 255 255 255
0.680291 18.961 -43.174 255 255 255
12.9245 22.6357 -50.4802 255 255 255
2.90907 16.0214 -47.6288 255 255 255
-6.65864 13.1453 -42.2808 255 255 255
0.653022 1.94964 -22.284 255 255 255
-1.05773 2.91873 -23.9153 255 255 255
0.137313 1.17164 -22.1921 255 255 255
7.97688 21.2125 -47.6709 255 255 255
7.05265 19.5851 -48.1201 255 255 255
3.04822 15.9375 -47.6608 255 255 255
2.3379 4.45936 -25.1991 255 255 255
0.130732 2.45629 -22.7892 255 255 255
2.38877 1.65976 -22.0518 255 255 255
1.1776 1.52493 -22.0155 255 255 255
3.19423 0.837383 -22.0407 255 255 255
0.75001 1.28368 -21.9995 255 255 255
-0.151109 1.47527 -22.4075 255 255 255
0.975117 -0.58127 -21.9312 255 255 255
3.81614 -1.30715 -22.3004 255 255 255
-0.165779 17.4976 -43.6943 255 255 255
1.30293 17.481 -45.1852 255 255 255
-3.10129 16.4486 -42.2385 255 255 255
13.3795 10.8744 -38.1495 255 255 255
2.89856 16.3827 -47.3022 255 255 255
2.16039 4.43973 -25.2102 255 255 255
3.17606 2.04426 -22.4245 255 255 255
2.13893 2.03097 -22.1758 255 255 255
-5.26539 12.8195 -43.5151 255 255 255
13.4715 3.80286 -32.6528 255 255 255
-5.6749 12.1197 -44.0693 255 255 255
3.23194 1.00855 -22.1059 255 255 255
3.37187 0.895321 -22.1637 255 255 255
3.61838 0.688259 -22.1945 255 255 255
0.546329 0.67878 -21.9602 255 255 255
0.704693 0.613138 -21.9242 255 255 255
-3.47741 2.8569 -27.5687 255 255 255
11.1978 20.369 -50.3114 255 255 255
13.1804 12.3165 -37.6931 255 255 255
4.2215 18.1331 -45.449 255 255 255
0.303152 17.6803 -44.0347 255 255 255
-0.242419 17.2376 -43.8564 255 255 255
0.246903 17.2399 -44.3749 255 255 255
0.250103 17.0272 -44.5604 255 255 255
-2.69857 16.3815 -42.7254 255 255 255
3.11675 16.338 -47.7714 255 255 255
0.146832 15.0615 -46.1518 255 255 255
-4.73143 13.2607 -43.7596 255 255 255
-0.442961 2.973 -23.5192 255 255 255
3.45004 0.816703 -22.184 255 255 255
0.647996 1.08463 -21.9977 255 255 255
0.946939 0.739771 -21.8752 255 255 255
-5.62914 16.1597 -40.539 255 255 255
12.9532 4.9584 -33.0732 255 255 255
-0.826683 2.20778 -23.2366 255 255 255
2.32739 0.650416 -21.815 255 255 255
-0.247875 0.382327 -22.2809 255 255 255
-0.590262 0.34484 -22.5136 255 255 255
-5.5158 15.9137 -40.7622 255 255 255
2.34522 2.12696 -22.2533 255 255 255
-0.191088 1.07464 -22.3215 255 255 255
0.423878 -0.570724 -22.0814 255 255 255
2.36449 1.25147 -21.9503 255 255 255
2.12186 0.413873 -21.7636 255 255 255
2.90023 0.880242 -22.0367 255 255 255
10.5963 21.6879 -49.3334 255 255 255
10.7009 21.5854 -49.4546 255 255 255
7.14748 20.4824 -47.6334 255 255 255
6.56042 20.6241 -46.8186 255 255 255
7.74225 20.6847 -48.0465 255 255 255
1.60454 19.479 -43.5858 255 255 255
2.15174 19.6795 -43.8361 255 255 255
-4.75634 17.232 -40.2621 255 255 255
7.75009 20.6888 -48.0632 255 255 255
12.7341 6.26909 -32.2415 255 255 255
-8.61566 14.2671 -39.7368 255 255 255
-11.6807 11.5593 -39.7449 255 255 255
-9.66984 12.7726 -40.1015 255 255 255
-15.6011 10.5297 -37.6718 255 255 255
-9.29844 12.6569 -40.5788 255 255 255
-10.6372 12.7428 -39.4148 255 255 255
-14.9552 13.2074 -35.638 255 255 255
-12.4691 13.6697 -37.1277 255 255 255
-12.1562 13.7279 -37.3142 255 255 255
-8.31354 14.1456 -40.0889 255 255 255
-16.2879 10.7458 -37.0874 255 255 255
-15.6286 9.56202 -38.7027 255 255 255
-8.45605 13.7617 -40.2872 255 255 255
-8.96705 14.1335 -39.5737 255 255 255
-13.864 11.1644 -38.1273 255 255 255
-12.8498 12.4655 -38.0978 255 255 255
-15.6969 11.6092 -36.1535 255 255 255
-9.55051 12.969 -40.135 255 255 255
-11.6003 12.2409 -38.8862 255 255 255
-9.8506 11.9884 -40.8264 255 255 255
-11.9843 13.1383 -37.828 255 255 255
-10.7693 13.6401 -38.5928 255 255 255
13.0394 10.146 -39.3683 255 255 255
-6.77931 13.0231 -42.4307 255 255 255
-7.19823 12.1118 -42.7507 255 255 255
-6.37157 11.7282 -43.7775 255 255 255
13.1725 9.70394 -39.436 255 255 255
-3.80516 5.59921 -38.3608 255 255 255
13.2652 4.7773 -32.3828 255 255 255
-3.32083 3.04862 -27.8338 255 255 255
2.62027 2.17581 -22.4771 255 255 255
3.11391 1.27149 -22.1888 255 255 255
3.48986 1.15236 -22.3646 255 255 255
3.59947 0.976714 -22.2589 255 255 255
3.56122 0.910509 -22.2121 255 255 255
4.52877 0.930624 -22.821 255 255 255
3.47119 0.741047 -22.199 255 255 255
13.912 0.618873 -34.0231 255 255 255
3.61506 0.492464 -22.2654 255 255 255
1.87721 0.295961 -21.7585 255 255 255
3.30701 0.208889 -22.0643 255 255 255
14.4964 -0.279382 -32.9479 255 255 255
0.43332 -0.345318 -22.0096 255 255 255
15.0129 -1.01805 -32.2303 255 255 255
0.967029 -0.830783 -22.006 255 255 255
15.281 -1.2348 -31.6478 255 255 255
1.75994 -1.09126 -22.0376 255 255 255
1.86885 -3.26214 -21.4569 255 255 255
1.98751 -3.70495 -21.8976 255 255 255
5.30254 -8.36609 -23.0491 255 255 255
-6.67471 12.9215 -42.5904 255 255 255
-6.67471 12.9215 -42.5904 255 255 255
13.3552 11.3387 -37.7772 255 255 255
-6.82595 12.1214 -42.9353 255 255 255
12.9335 10.6237 -39.3506 255 255 255
-12.4717 10.3999 -40.3843 255 255 255
13.2484 9.73761 -39.1238 255 255 255
1.46087 4.40763 -25.0986 255 255 255
-3.43421 3.06698 -27.7762 255 255 255
12.9054 3.81504 -34.0654 255 255 255
-7.88742 3.11152 -35.6327 255 255 255
0.739414 2.30745 -22.4528 255 255 255
13.391 3.12957 -33.4571 255 255 255
13.2465 3.08871 -33.7629 255 255 255
13.6605 3.05502 -32.7663 255 255 255
1.51963 2.02337 -22.1508 255 255 255
2.9379 2.00487 -22.3513 255 255 255
3.19056 1.94512 -22.3821 255 255 255
-0.49417 1.24888 -22.5512 255 255 255
3.74699 1.02131 -22.4112 255 255 255
1.63239 0.708102 -21.7889 255 255 255
13.7254 0.70438 -34.1909 255 255 255
5.67797 0.504511 -24.0169 255 255 255
13.7891 0.491666 -34.1854 255 255 255
2.99326 0.0055429 -21.9525 255 255 255
2.33937 -0.107651 -21.8092 255 255 255
-0.315327 -0.31789 -22.3633 255 255 255
3.63287 -0.476606 -22.2359 255 255 255
-0.593354 -0.642808 -22.5741 255 255 255
3.95671 -0.648611 -22.4593 255 255 255
3.75823 -0.674198 -22.3594 255 255 255
3.23685 -0.849318 -22.2431 255 255 255
7.32814 -1.15774 -23.8561 255 255 255
6.81258 -2.20004 -24.1127 255 255 255
4.64768 -3.39942 -22.6816 255 255 255
3.90132 -3.60359 -22.3172 255 255 255
3.91756 -3.6726 -22.39 255 255 255
12.8042 -4.85261 -27.9268 255 255 255
12.3254 -6.0406 -26.4134 255 255 255
-3.51205 -8.47127 -22.7457 255 255 255
-3.56895 -8.5314 -22.6115 255 255 255
-1.94172 -8.68807 -22.4884 255 255 255
1.88095 -8.60981 -22.5348 255 255 255
-1.97874 -8.7682 -22.3551 255 255 255
13.1212 11.8012 -38.0363 255 255 255
13.1185 11.8006 -38.026 255 255 255
-9.0742 12.02 -41.2602 255 255 255
13.8347 10.8114 -36.932 255 255 255
13.1361 10.6745 -38.7989 255 255 255
13.1361 10.6745 -38.7989 255 255 255
-12.3706 10.265 -40.4822 255 255 255
7.3595 9.86907 -43.8721 255 255 255
1.93235 9.30288 -42.6568 255 255 255
6.51341 8.0571 -41.8304 255 255 255
12.7337 6.25615 -32.2441 255 255 255
-2.17955 6.20232 -39.0744 255 255 255
-4.04332 5.53512 -38.5728 255 255 255
13.62 4.65362 -31.5054 255 255 255
-2.5474 3.00619 -26.8482 255 255 255
-7.29917 2.80811 -35.2241 255 255 255
1.2162 1.6291 -22.0349 255 255 255
13.7543 0.926057 -34.2499 255 255 255
13.8146 0.589558 -34.076 255 255 255
3.05752 0.390541 -21.9567 255 255 255
5.52675 0.328679 -23.7622 255 255 255
14.189 -0.0843015 -33.5752 255 255 255
0.492378 -0.421298 -22.0486 255 255 255
0.525083 -0.671435 -22.065 255 255 255
-7.28445 -1.80206 -30.1534 255 255 255
-7.20482 -1.88658 -30.0585 255 255 255
-7.47862 -2.33725 -29.4509 255 255 255
-2.31358 -8.16745 -23.0134 255 255 255
-6.60188 12.2152 -43.0701 255 255 255
13.8105 10.2275 -37.4108 255 255 255
13.7761 8.71784 -38.4225 255 255 255
5.8385 8.3963 -42.0316 255 255 255
13.584 4.30379 -31.9122 255 255 255
13.3362 3.98589 -32.8631 255 255 255
12.9778 3.65151 -34.398 255 255 255
4.28837 2.67883 -23.3871 255 255 255
-8.08567 2.85289 -35.2876 255 255 255
-7.37346 2.3642 -34.7803 255 255 255
13.425 2.0704 -34.1895 255 255 255
14.1251 2.00048 -32.3284 255 255 255
14.7032 0.545886 -31.5691 255 255 255
14.8572 0.413299 -31.5052 255 255 255
14.7075 0.379302 -31.9194 255 255 255
3.13872 0.320686 -22.0115 255 255 255
15.3303 -1.82913 -31.6163 255 255 255
1.99506 -4.21415 -22.4033 255 255 255
-1.7748 -8.95738 -22.1597 255 255 255
-12.2371 10.4593 -40.3859 255 255 255
13.3591 10.2278 -38.5483 255 255 255
-2.33171 10.4364 -43.568 255 255 255
13.2048 9.56557 -39.4489 255 255 255
13.5466 9.40575 -38.6284 255 255 255
13.8961 8.66782 -38.0316 255 255 255
0.989139 8.70052 -42.0003 255 255 255
8.46413 6.91941 -40.8828 255 255 255
8.46413 6.91941 -40.8828 255 255 255
13.0224 5.54921 -32.4765 255 255 255
1.17387 2.50858 -22.5578 255 255 255
1.47082 1.8897 -22.1155 255 255 255
13.4137 2.46838 -33.7918 255 255 255
5.74197 1.02653 -24.1646 255 255 255
5.57744 1.00774 -23.8748 255 255 255
2.79951 -0.630928 -22.0169 255 255 255
12.5491 -5.12211 -27.5899 255 255 255
8.98503 -7.13999 -24.8066 255 255 255
12.9556 10.2801 -39.3702 255 255 255
13.8119 9.33182 -38.0943 255 255 255
14.0245 8.84228 -37.9227 255 255 255
1.03041 8.43205 -41.9443 255 255 255
2.27641 3.14593 -22.2057 255 255 255
13.5604 3.87723 -32.3739 255 255 255
14.6056 0.277235 -32.16 255 255 255
0.753816 -0.422154 -21.9367 255 255 255
2.9622 -0.525053 -22.1063 255 255 255
6.75478 12.1706 -46.2634 255 255 255
13.2676 3.23517 -33.2071 255 255 255
12.4391 -4.92482 -27.9388 255 255 255
-16.1797 9.21208 -38.7001 255 255 255
-10.81 11.0443 -40.825 255 255 255
-14.6843 13.2476 -35.8355 255 255 255
-14.5853 13.2804 -35.8848 255 255 255
-15.3049 10.8927 -37.1321 255 255 255
3.86096 20.0388 -45.1428 255 255 255
15.3622 23.2769 -51.8609 255 255 255
9.78861 21.1795 -48.9745 255 255 255
11.4407 22.4575 -49.736 255 255 255
10.2758 21.5692 -49.1372 255 255 255
5.0181 20.5974 -45.6315 255 255 255
1.53852 -6.09085 -22.9947 255 255 255
13.156 6.21782 -31.7431 255 255 255
13.4625 12.187 -37.1381 255 255 255
12.2177 18.8036 -52.675 255 255 255
13.6161 20.416 -52.5993 255 255 255
13.8848 10.5899 -37.0153 255 255 255
13.3486 10.2224 -38.5263 255 255 255
12.8468 10.3435 -39.7556 255 255 255
10.912 21.7981 -49.4637 255 255 255
13.4827 12.2135 -36.905 255 255 255
13.2325 12.6763 -37.2059 255 255 255
12.8963 12.0276 -38.4794 255 255 255
13.351 5.89195 -31.4038 255 255 255
-0.11423 18.6849 -42.8716 255 255 255
-0.871345 1.0754 -22.7798 255 255 255
-8.5696 12.8354 -41.0655 255 255 255
-9.79538 13.1251 -39.775 255 255 255
-16.4834 9.87961 -37.7084 255 255 255
-14.5974 12.0221 -37.1438 255 255 255
-13.138 10.3947 -40.0879 255 255 255
12.0519 18.9592 -52.5059 255 255 255
3.52799 15.8145 -48.1855 255 255 255
12.2305 18.8149 -52.6975 255 255 255
-5.31177 5.25648 -38.1566 255 255 255
0.0381868 17.7343 -43.8208 255 255 255
-2.71027 15.9081 -43.1024 255 255 255
2.31913 1.45835 -21.9745 255 255 255
12.3671 18.1494 -53.1911 255 255 255
-0.722523 0.196443 -22.5674 255 255 255
-13.5926 12.4015 -37.5363 255 255 255
-3.55256 17.5569 -41.1158 255 255 255
-12.0001 12.607 -38.4752 255 255 255
-14.4744 11.9275 -37.3751 255 255 255
-13.4325 12.2252 -37.8023 255 255 255
0.530701 17.9052 -43.9642 255 255 255
-2.05564 14.9283 -42.8406 255 255 255
-5.88915 15.0827 -41.2514 255 255 255
-0.402733 14.0917 -46.5253 255 255 255
1.19878 19.2121 -43.4957 255 255 255
3.84618 16.098 -48.27 255 255 255
0.148233 2.71266 -22.9418 255 255 255
-3.97105 5.66292 -38.7894 255 255 255
1.79823 19.7861 -43.5373 255 255 255
-6.39641 15.2825 -40.7387 255 255 255
-0.829329 2.4168 -23.3278 255 255 255
0.312192 17.9964 -43.8781 255 255 255
-1.60398 16.9857 -42.9647 255 255 255
-2.06319 15.1972 -42.6515 255 255 255
-3.40574 6.35223 -39.3553 255 255 255
0.802431 2.65047 -22.7488 255 255 255
0.133237 1.99813 -22.498 255 255 255
1.46401 1.59865 -21.9745 255 255 255
0.146592 18.7733 -43.2419 255 255 255
0.727481 2.40316 -22.4908 255 255 255
-0.743713 1.82416 -22.9511 255 255 255
0.152642 1.34509 -22.2168 255 255 255
1.2625 2.1456 -22.2502 255 255 255
-0.451184 2.11885 -22.8633 255 255 255
0.261843 1.77618 -22.3448 255 255 255
0.856499 1.67198 -22.11 255 255 255
-0.374522 1.22342 -22.4776 255 255 255
2.03943 1.17414 -21.8642 255 255 255
6.63349 20.0194 -47.4322 255 255 255
0.0782748 1.61412 -22.2905 255 255 255
-0.763457 2.61647 -23.4214 255 255 255
0.0230828 2.38109 -22.7691 255 255 255
0.672663 1.95251 -22.2798 255 255 255
0.946879 1.41749 -22.0272 255 255 255
2.03848 19.8754 -43.6501 255 255 255
0.34806 18.4333 -43.4461 255 255 255
3.53918 2.70945 -23.2325 255 255 255
-16.2605 11.7476 -35.9757 255 255 255
-15.1851 10.5638 -38.0811 255 255 255
-9.16142 12.8073 -40.4919 255 255 255
-8.94845 12.694 -40.8413 255 255 255
-11.7642 11.0376 -40.2824 255 255 255
0.341219 19.0672 -43.0222 255 255 255
1.03449 19.3765 -43.4824 255 255 255
0.379736 18.8408 -43.173 255 255 255
-15.2 10.4389 -38.183 255 255 255
-10.8903 11.1769 -40.8101 255 255 255
-12.4328 14.0377 -36.866 255 255 255
-15.0814 13.0414 -35.7033 255 255 255
-15.0814 13.0414 -35.7033 255 255 255
-14.3502 12.666 -37.0368 255 255 255
-12.5426 12.8467 -37.815 255 255 255
-15.6342 9.23079 -38.7543 255 255 255
-14.9707 11.5643 -37.2758 255 255 255
-14.0789 7.2003 -40.2894 255 255 255
-13.978 7.00524 -39.9484 255 255 255
-13.4549 12.6915 -37.3804 255 255 255
-12.759 12.8881 -37.6057 255 255 255
-14.5054 12.0816 -37.1256 255 255 255
-16.0015 11.8509 -36.1395 255 255 255
-11.0961 12.7588 -38.9505 255 255 255
2.6493 -0.738124 -22.0306 255 255 255
-10.8739 11.2729 -40.6668 255 255 255
-14.8802 10.4854 -38.4269 255 255 255
-13.6393 12.5039 -37.4299 255 255 255
-16.2241 9.83794 -37.9767 255 255 255
-16.026 9.49179 -38.3835 255 255 255
-11.2046 12.1598 -39.543 255 255 255
-12.6935 12.7791 -37.9987 255 255 255
-13.7348 12.152 -37.7345 255 255 255
-11.7755 1.97436 -34.2506 255 255 255
-16.0591 9.51511 -38.5014 255 255 255
-14.6831 12.1165 -37.1459 255 255 255
-15.6392 9.41908 -38.8658 255 255 255
-8.16383 3.02458 -35.6339 255 255 255
-11.6492 13.2054 -38.2842 255 255 255
-8.89901 13.5805 -40.0484 255 255 255
-15.7106 10.5216 -37.7365 255 255 255
-15.6371 9.41667 -38.8631 255 255 255
-14.5077 11.9585 -37.2176 255 255 255
-9.08591 14.2478 -39.3576 255 255 255
-10.7429 11.594 -40.3288 255 255 255
-14.2953 11.9533 -37.5149 255 255 255
-10.4016 13.6974 -38.9039 255 255 255
-15.9535 10.1023 -37.8693 255 255 255
-12.3087 14.0237 -36.8979 255 255 255
0.359293 -0.508276 -22.074 255 255 255
13.4297 12.3426 -36.8927 255 255 255
13.0361 10.669 -39.0062 255 255 255
13.0355 10.6682 -38.9993 255 255 255
13.0744 10.4466 -39.2399 255 255 255
13.3743 10.875 -38.1368 255 255 255
13.6838 3.94753 -32.0505 255 255 255
2.15922 0.223352 -21.777 255 255 255
13.5865 3.63569 -32.4829 255 255 255
13.5604 3.24524 -32.8568 255 255 255
13.3875 11.9589 -37.3735 255 255 255
13.2196 11.8522 -37.9235 255 255 255
13.5099 10.6813 -37.8591 255 255 255
13.672 4.4164 -31.6501 255 255 255
1.85559 0.410397 -21.7641 255 255 255
-0.466347 -0.397483 -22.486 255 255 255
13.0297 6.24399 -31.8887 255 255 255
-1.13186 1.67957 -23.1912 255 255 255
2.65573 0.0291921 -21.7565 255 255 255
2.42169 -0.192895 -21.7885 255 255 255
-1.11327 0.986046 -22.9824 255 255 255
-0.376376 0.473371 -22.371 255 255 255
-0.24745 0.38233 -22.2792 255 255 255
-0.0865124 0.282918 -22.2136 255 255 255
1.9557 -0.407891 -21.8419 255 255 255
1.95759 -0.408713 -21.8458 255 255 255
-0.764508 0.455817 -22.6043 255 255 255
1.87613 -0.538798 -21.8478 255 255 255
-1.67039 0.826619 -23.5464 255 255 255
13.2486 12.4071 -37.3159 255 255 255
-0.810553 0.710381 -22.6458 255 255 255
-1.29456 0.7108 -23.1213 255 255 255
0.479673 -0.198955 -21.9823 255 255 255
0.480273 -0.191261 -21.9865 255 255 255
0.899531 -0.510358 -21.931 255 255 255
0.990812 -0.14077 -21.835 255 255 255
-9.64932 12.5455 -40.4591 255 255 255
-11.806 13.3016 -38.1168 255 255 255
-13.6758 12.5479 -37.5222 255 255 255
-13.0111 12.317 -37.9662 255 255 255
-9.83439 13.9614 -38.9361 255 255 255
-15.8811 10.4688 -37.5073 255 255 255
-9.91559 12.9987 -39.8205 255 255 255
-13.8868 12.2108 -37.5855 255 255 255
-16.0288 10.4093 -37.6117 255 255 255
-10.8669 11.4156 -40.4478 255 255 255
-12.8411 12.702 -37.7377 255 255 255
-16.0288 10.4093 -37.6117 255 255 255
-15.8933 11.4723 -36.5502 255 255 255
-16.3383 10.6459 -37.0301 255 255 255
-12.0072 12.614 -38.4966 255 255 255
-12.2959 12.4521 -38.4019 255 255 255
-13.1614 12.3808 -37.9481 255 255 255
-11.6521 13.2037 -38.2915 255 255 255
-10.6409 13.0232 -39.2241 255 255 255
-16.1738 10.7554 -37.2 255 255 255
-13.2821 12.5669 -37.689 255 255 255
-11.1027 13.1404 -38.6769 255 255 255
-15.6353 10.4133 -37.698 255 255 255
-15.3676 12.2062 -36.2426 255 255 255
-15.1255 6.20893 -39.0742 255 255 255
-14.6508 11.6509 -37.445 255 255 255
-10.9263 13.4054 -38.679 255 255 255
-16.1887 10.0267 -38.4468 255 255 255
-16.0096 9.92708 -37.9704 255 255 255
-16.3562 10.6598 -37.0715 255 255 255
-14.189 12.275 -37.2605 255 255 255
-11.1024 13.1403 -38.681 255 255 255
-16.2408 10.6286 -37.168 255 255 255
-14.7916 12.2552 -36.8492 255 255 255
-10.5541 13.5458 -38.8227 255 255 255
-13 12.7466 -37.5632 255 255 255
-9.94917 0.955546 -33.4674 255 255 255
-2.52223 2.87271 -26.5862 255 255 255
9.26299 19.5125 -49.5626 255 255 255
1.11516 1.77431 -22.1281 255 255 255
1.8832 1.0478 -21.8136 255 255 255
2.57947 0.669743 -21.8429 255 255 255
3.73134 -0.393949 -22.3029 255 255 255
14.4987 19.4175 -54.2445 255 255 255
-7.35656 2.5621 -35.0255 255 255 255
-8.32965 1.63068 -33.9868 255 255 255
-6.84813 11.921 -43.2521 255 255 255
-0.0333981 16.6195 -44.8062 255 255 255
-13.1747 12.8625 -37.3627 255 255 255
-2.63362 -8.04284 -23.2256 255 255 255
10.2224 21.9901 -48.9276 255 255 255
-8.67716 13.6748 -40.1866 255 255 255
-8.23824 13.6387 -40.4691 255 255 255
3.34414 0.25728 -22.0428 255 255 255
0.876214 0.563677 -21.8988 255 255 255
2.11831 -1.6509 -21.6678 255 255 255
13.7186 10.3145 -37.5985 255 255 255
5.01016 -1.01769 -22.7128 255 255 255
2.83809 -0.874623 -22.1066 255 255 255
-8.54497 13.9221 -40.1724 255 255 255
-8.52967 13.903 -40.1088 255 255 255
-0.745152 1.82275 -22.9421 255 255 255
0.0413578 -1.83452 -21.9741 255 255 255
1.9176 1.4423 -21.9306 255 255 255
1.9151 1.44016 -21.929 255 255 255
13.5895 3.43604 -32.6857 255 255 255
13.5801 3.42838 -32.6582 255 255 255
-13.0923 12.5324 -37.8115 255 255 255
-8.44583 14.4344 -39.7186 255 255 255
1.78468 -2.00337 -21.6824 255 255 255
-7.70116 13.3195 -41.1916 255 255 255
-4.8682 12.3649 -44.2855 255 255 255
0.983123 19.106 -43.3223 255 255 255
-6.62024 16.0111 -39.7438 255 255 255
0.58561 18.6623 -43.5429 255 255 255
-7.07226 13.5685 -41.5278 255 255 255
3.02109 -0.111861 -21.9909 255 255 255
3.68457 -2.60089 -21.8005 255 255 255
0.68865 -0.464424 -21.9612 255 255 255
0.85329 0.213144 -21.8515 255 255 255
-3.36383 2.99182 -27.6854 255 255 255
5.77178 -0.295772 -23.6557 255 255 255
14.9215 0.445706 -31.3031 255 255 255
1.85835 -3.48682 -21.6517 255 255 255
12.9551 4.84472 -33.0453 255 255 255
1.65174 0.126029 -21.7669 255 255 255
2.56526 -1.01472 -22.1101 255 255 255
0.65514 -0.393164 -21.9798 255 255 255
2.26194 0.0402651 -21.7781 255 255 255
-0.115746 -0.00931754 -22.2309 255 255 255
15.1023 -0.954812 -31.7371 255 255 255
2.59247 0.251012 -21.9423 255 255 255
-8.16383 3.02458 -35.6339 255 255 255
-8.6636 2.95962 -35.6005 255 255 255
-8.72105 2.96991 -35.7706 255 255 255
-7.76307 13.8718 -40.821 255 255 255
-7.52851 8.79961 -41.9577 255 255 255
-7.18459 7.56115 -40.687 255 255 255
-10.8972 3.00312 -35.6037 255 255 255
-11.0696 7.95699 -41.0498 255 255 255
-9.23161 13.1419 -40.267 255 255 255
-8.25503 3.16375 -35.8106 255 255 255
-13.8596 10.765 -40.112 255 255 255
-15.165 12.0368 -36.5017 255 255 255
-7.06249 14.145 -41.091 255 255 255
-15.2485 11.0799 -37.6247 255 255 255
-7.49758 14.411 -40.6387 255 255 255
-7.34406 13.348 -41.5617 255 255 255
-7.12175 14.0811 -41.1965 255 255 255
-8.36699 14.0387 -40.1056 255 255 255
-1.48716 -0.312412 -22.9589 255 255 255
-10.2303 11.5725 -40.8118 255 255 255
-12.5587 12.8688 -37.8735 255 255 255
-10.0344 11.1187 -41.4397 255 255 255
-7.06404 14.1453 -41.1045 255 255 255
-2.43955 -8.51154 -22.5587 255 255 255
-5.26875 -7.10324 -24.1658 255 255 255
-3.19081 -8.36275 -22.7821 255 255 255
-3.97847 -8.11322 -23.076 255 255 255
-3.37579 -8.31108 -22.9127 255 255 255
0.7493 0.347094 -21.8819 255 255 255
-3.22685 -7.9816 -23.2244 255 255 255
-3.54446 -7.88467 -23.2641 255 255 255
-3.65261 -8.27216 -22.9891 255 255 255
-2.50362 -3.43331 -24.2575 255 255 255
1.07279 2.18962 -22.3133 255 255 255
-0.422788 -3.74061 -22.6365 255 255 255
-9.8844 12.679 -40.1321 255 255 255
-10.7348 11.3585 -40.0905 255 255 255
-11.0356 11.172 -40.8062 255 255 255
-21.8626 2.76735 -35.2246 255 255 255
-9.10962 15.1817 -38.465 255 255 255
-12.9568 10.6892 -39.9441 255 255 255
-6.62903 14.7757 -40.9448 255 255 255
-7.73216 14.2468 -40.5139 255 255 255
-8.34355 13.1805 -40.805 255 255 255
-8.20902 14.0836 -41.4026 255 255 255
-9.16608 12.6523 -40.6551 255 255 255
-15.867 8.10553 -40.8693 255 255 255
-7.83346 14.326 -40.3111 255 255 255
-13.1132 9.31469 -41.3221 255 255 255
-10.183 11.7068 -40.7913 255 255 255
-11.8965 13.0532 -38.1346 255 255 255
-16.3884 12.231 -35.5055 255 255 255
-9.67256 11.4086 -41.0646 255 255 255
0.263924 -0.33537 -22.0873 255 255 255
-16.1139 11.0395 -39.3627 255 255 255
-6.90385 13.3646 -41.1445 255 255 255
-12.1636 11.8421 -38.6923 255 255 255
-8.22791 13.8413 -40.4084 255 255 255
14.7935 0.0928925 -31.9386 255 255 255
-9.93775 6.9382 -39.9888 255 255 255
-12.3756 14.2203 -36.7084 255 255 255
-12.4226 14.0548 -36.9075 255 255 255
-11.9 13.0599 -38.1346 255 255 255
-11.6394 11.2393 -40.2711 255 255 255
-9.49541 13.7393 -39.472 255 255 255
-9.93997 14.9319 -38.0306 255 255 255
-8.31388 3.97419 -36.4755 255 255 255
-9.65911 7.724 -40.7389 255 255 255
-14.3913 5.60436 -39.1001 255 255 255
-12.9968 5.47248 -38.2333 255 255 255
-14.0574 4.75773 -37.4065 255 255 255
-11.8914 10.1928 -40.9457 255 255 255
-13.572 5.03779 -37.8516 255 255 255
-13.1013 5.66149 -38.6857 255 255 255
-9.22127 7.00586 -39.9956 255 255 255
-12.8488 5.10927 -37.803 255 255 255
-12.0206 10.5904 -40.4688 255 255 255
-9.65246 13.7245 -39.4167 255 255 255
-14.1751 7.14241 -40.0709 255 255 255
-10.417 13.5416 -38.8633 255 255 255
-9.73045 11.9389 -40.9935 255 255 255
-9.49663 13.7385 -39.4933 255 255 255
-12.3249 9.94968 -40.8796 255 255 255
4.83604 1.07314 -23.0848 255 255 255
4.68014 0.93316 -22.9112 255 255 255
5.22167 0.112199 -23.4043 255 255 255
0.373968 -2.77628 -21.3285 255 255 255
7.34488 13.2817 -47.8293 255 255 255
14.1882 2.74706 -31.5581 255 255 255
-0.866769 1.99125 -23.1048 255 255 255
-1.1159 2.01962 -23.3709 255 255 255
3.2293 0.996046 -22.0932 255 255 255
3.41275 0.583072 -22.1315 255 255 255
1.48327 2.13903 -22.2016 255 255 255
4.96969 -1.14428 -22.6791 255 255 255
2.87279 15.7719 -48.0263 255 255 255
-5.68743 13.3946 -42.6096 255 255 255
-8.07742 13.3122 -41.4451 255 255 255
-12.9442 5.20066 -37.8608 255 255 255
-8.61352 6.54632 -39.4386 255 255 255
6.04725 12.9681 -47.3187 255 255 255
9.11531 12.6646 -47.3729 255 255 255
9.11531 12.6646 -47.3729 255 255 255
6.57087 13.3748 -47.8619 255 255 255
3.32812 16.3085 -47.6371 255 255 255
9.17568 18.9277 -50.2064 255 255 255
3.03126 15.1134 -48.4248 255 255 255
4.22093 17.0427 -47.6942 255 255 255
0.165595 15.2718 -45.9275 255 255 255
-6.8418 15.7366 -39.7317 255 255 255
-5.43625 15.2168 -41.4641 255 255 255
-6.62629 13.6984 -41.7679 255 255 255
-2.78449 16.5618 -42.3945 255 255 255
-4.58975 14.3295 -43.0301 255 255 255
2.28749 19.6494 -44.0875 255 255 255
1.14652 19.7502 -42.965 255 255 255
3.64056 15.7019 -48.3114 255 255 255
2.56204 16.0405 -46.5625 255 255 255
-10.5388 12.2875 -39.9315 255 255 255
-11.2001 10.6375 -41.3191 255 255 255
-1.9679 9.29042 -42.7527 255 255 255
-3.34109 -0.709162 -23.3483 255 255 255
-3.08333 -0.817221 -23.2705 255 255 255
-3.16746 -8.08722 -23.0969 255 255 255
0.0757849 -0.185457 -22.1343 255 255 255
0.922543 1.54078 -22.0394 255 255 255
4.66323 -2.32269 -22.2087 255 255 255
-6.45571 14.2377 -41.4921 255 255 255
-0.545849 16.4665 -44.267 255 255 255
8.59441 19.4729 -47.839 255 255 255
3.41192 2.52664 -22.8684 255 255 255
2.11321 -0.00354735 -21.7976 255 255 255
3.2992 -0.058131 -22.0692 255 255 255
2.65813 -2.10127 -21.8666 255 255 255
4.52697 -3.29236 -22.4474 255 255 255
4.52697 -3.29236 -22.4474 255 255 255
3.33729 2.35235 -22.7309 255 255 255
1.86603 -0.00546568 -21.7633 255 255 255
0.793262 -0.101138 -21.8721 255 255 255
1.74582 -0.407742 -21.8147 255 255 255
2.72456 -0.754743 -22.0637 255 255 255
2.41939 -0.985635 -22.0892 255 255 255
-0.649002 -2.734 -21.6455 255 255 255
1.67011 -3.74778 -21.9195 255 255 255
5.93181 -5.44409 -24.0497 255 255 255
0.978884 -2.9148 -21.1734 255 255 255
13.6776 20.5047 -52.7653 255 255 255
4.39287 17.1477 -46.4425 255 255 255
-0.452748 -3.77186 -22.5709 255 255 255
-12.1217 10.5773 -40.2426 255 255 255
0.432581 -0.875194 -22.1586 255 255 255
0.200512 0.368958 -22.0623 255 255 255
2.23608 -0.393091 -21.889 255 255 255
-9.73114 3.30902 -36.1261 255 255 255
-12.2194 10.4491 -40.319 255 255 255
-11.8991 10.6253 -40.719 255 255 255
-12.2286 11.0209 -39.7012 255 255 255
-11.6817 10.348 -40.9177 255 255 255
-11.7333 10.6748 -40.6433 255 255 255
-10.1124 14.0218 -39.1118 255 255 255
-14.8268 13.0228 -36.0688 255 255 255
-8.14295 14.1674 -42.989 255 255 255
-5.69528 13.3827 -42.6257 255 255 255
5.99221 15.6844 -49.8573 255 255 255
6.89859 16.203 -50.581 255 255 255
13.3722 12.3413 -37.1185 255 255 255
8.58099 17.7935 -50.6665 255 255 255
12.0408 18.8323 -52.7475 255 255 255
2.04131 -1.07888 -22.0516 255 255 255
3.80266 -0.521807 -22.335 255 255 255
2.02559 2.04332 -22.17 255 255 255
2.21538 -1.09779 -22.0794 255 255 255
0.839777 -2.83561 -21.2625 255 255 255
13.8141 2.94909 -32.4427 255 255 255
3.47073 -0.666028 -22.2408 255 255 255
5.47187 -2.29602 -22.335 255 255 255
4.54668 -2.32312 -22.1984 255 255 255
-0.110122 -3.44827 -22.1163 255 255 255
1.39755 1.4189 -21.9333 255 255 255
14.3803 2.47456 -31.3158 255 255 255
0.97471 -1.95523 -21.7374 255 255 255
3.37384 -0.739391 -22.2263 255 255 255
2.44936 18.2937 -45.2173 255 255 255
2.2321 -0.868069 -21.9868 255 255 255
3.16575 -1.02888 -22.2768 255 255 255
13.7687 3.63492 -32.0702 255 255 255
15.1623 -0.418374 -31.4346 255 255 255
2.17356 -1.05346 -22.058 255 255 255
1.71959 -0.768798 -21.9317 255 255 255
15.3927 -1.70587 -31.6596 255 255 255
13.8968 4.04389 -31.3239 255 255 255
3.47396 0.932623 -22.1809 255 255 255
4.71815 -4.10012 -23.4223 255 255 255
2.73332 -0.69536 -22.0202 255 255 255
11.2998 21.3851 -50.1984 255 255 255
13.8934 4.04617 -31.3238 255 255 255
8.02495 17.584 -50.3801 255 255 255
2.80884 -3.21055 -21.4674 255 255 255
6.62655 16.8772 -49.9586 255 255 255
12.747 19.3196 -52.9454 255 255 255
12.781 20.9581 -51.644 255 255 255
12.8829 20.1409 -52.4395 255 255 255
15.3315 -1.50406 -31.7913 255 255 255
2.63904 -2.05043 -21.8297 255 255 255
2.37168 -0.343734 -21.8491 255 255 255
13.0849 21.4684 -50.9919 255 255 255
12.0478 21.7399 -50.3389 255 255 255
12.813 20.3055 -52.0838 255 255 255
1.57884 -1.93044 -21.6493 255 255 255
2.85106 -0.524345 -21.9908 255 255 255
13.1908 10.7179 -38.6162 255 255 255
13.048 5.54878 -32.547 255 255 255
1.03115 -1.0536 -22.0565 255 255 255
4.14302 -2.54508 -21.8631 255 255 255
3.08834 -0.282634 -22.0113 255 255 255
13.3609 12.4453 -37.1917 255 255 255
15.2717 -1.14287 -31.6638 255 255 255
13.2654 10.5392 -38.4712 255 255 255
1.26855 -0.610389 -21.9033 255 255 255
0.585083 -1.85025 -21.7746 255 255 255
3.25122 -0.978526 -22.2784 255 255 255
1.03051 -1.05401 -22.058 255 255 255
12.1729 21.4867 -50.6544 255 255 255
13.2364 5.84277 -31.6481 255 255 255
3.32071 -0.516741 -22.146 255 255 255
13.3091 10.4477 -38.5202 255 255 255
3.82384 -2.62972 -21.7533 255 255 255
7.85294 17.1269 -50.7235 255 255 255
13.9721 3.28186 -31.7385 255 255 255
6.44125 17.1909 -38.8203 255 255 255
-2.29109 3.17384 -26.9142 255 255 255
-0.40906 -2.41146 -21.6845 255 255 255
-1.86468 -1.70589 -22.3433 255 255 255
2.92833 -4.02553 -22.2907 255 255 255
13.1358 6.86214 -31.4916 255 255 255
-2.50862 1.00359 -24.3762 255 255 255
-0.203058 -1.05943 -22.1779 255 255 255
1.00867 -2.05027 -21.7729 255 255 255
-0.840564 -2.44078 -21.5449 255 255 255
2.69756 -5.07819 -23.3011 255 255 255
