ply
format ascii 1.0
element vertex 1262
property double x
property double y
property double z
property uchar red
property uchar green
property uchar blue
end_header
-11.9948 10.3165 -39.4009 255 255 255
-9.90482 10.3544 -41.1877 255 255 255
-9.89199 10.3222 -41.05 255 255 255
-11.0409 10.2159 -39.9584 255 255 255
12.5214 6.4223 -39.5018 255 255 255
15.0967 3.40811 -27.1531 255 255 255
15.0107 3.38719 -27.0214 255 255 255
-9.04178 10.1209 -41.8061 255 255 255
-10.2198 10.0019 -40.9408 255 255 255
-11.5305 9.99104 -39.9453 255 255 255
1.71127 7.89285 -40.4418 255 255 255
-6.26907 9.40608 -41.5826 255 255 255
-8.79273 9.87617 -42.0819 255 255 255
-9.58398 9.81676 -41.4566 255 255 255
-13.5317 10.0719 -39.594 255 255 255
-1.76617 8.19764 -40.5467 255 255 255
-6.07266 8.96557 -41.0082 255 255 255
-9.74734 9.75099 -41.9473 255 255 255
12.8459 5.40456 -38.4056 255 255 255
-11.7139 9.65696 -40.2135 255 255 255
-6.02748 8.83394 -40.9114 255 255 255
12.6132 5.40579 -38.3038 255 255 255
-10.5605 9.66437 -41.3962 255 255 255
-10.455 9.45167 -41.1725 255 255 255
-10.336 9.51782 -41.6279 255 255 255
-6.4478 8.74961 -41.0672 255 255 255
-11.7261 9.49652 -40.517 255 255 255
0.466997 4.2615 -24.3735 255 255 255
-7.26109 8.68353 -40.7059 255 255 255
-12.0077 9.39251 -40.3347 255 255 255
-11.3675 9.28485 -41.1546 255 255 255
-6.78847 8.20644 -40.3163 255 255 255
11.7132 4.69736 -37.6141 255 255 255
-3.39897 7.41039 -39.6359 255 255 255
-15.5133 9.03558 -37.2142 255 255 255
-15.5133 9.03558 -37.2142 255 255 255
-14.7597 9.04767 -38.5994 255 255 255
-7.40584 7.9734 -39.9938 255 255 255
-11.9188 8.7772 -40.3163 255 255 255
-5.5652 7.60706 -39.86 255 255 255
11.6338 4.36598 -37.3037 255 255 255
-0.0893216 3.76037 -23.8718 255 255 255
15.8081 1.89308 -26.4986 255 255 255
-14.3333 9.0248 -39.8642 255 255 255
13.2596 3.03786 -31.5997 255 255 255
12.4887 3.36369 -33.2801 255 255 255
15.6709 1.72174 -26.8469 255 255 255
-8.46706 7.64847 -39.7138 255 255 255
-11.4023 8.02723 -39.8893 255 255 255
11.5516 3.65711 -36.3674 255 255 255
-14.8173 8.37272 -39.327 255 255 255
3.92091 2.51769 -22.8526 255 255 255
4.72044 2.4043 -23.3075 255 255 255
0.125459 2.95945 -22.9037 255 255 255
-10.8597 7.33037 -39.4251 255 255 255
-12.3005 7.41486 -38.8142 255 255 255
-12.3005 7.41486 -38.8142 255 255 255
4.8514 2.1692 -23.2426 255 255 255
4.90842 2.18703 -23.4363 255 255 255
-12.5135 7.41472 -39.5037 255 255 255
-6.96265 6.07184 -38.0053 255 255 255
16.6806 0.485194 -25.386 255 255 255
1.03078 2.43752 -22.389 255 255 255
2.43988 2.15921 -22.1717 255 255 255
15.2296 1.12863 -28.8137 255 255 255
2.34073 2.10959 -22.0134 255 255 255
-6.2475 5.724 -37.7371 255 255 255
5.0419 1.75572 -23.2577 255 255 255
12.8265 1.90449 -33.7252 255 255 255
11.7605 2.20627 -34.9952 255 255 255
2.47375 1.84742 -22.0138 255 255 255
11.8908 1.90672 -34.6917 255 255 255
1.33525 1.91055 -22.0251 255 255 255
15.4525 0.416199 -28.2723 255 255 255
16.1922 0.200621 -27.5071 255 255 255
-5.0183 4.74418 -36.7377 255 255 255
14.1271 0.972149 -31.5863 255 255 255
-16.4315 6.93031 -38.86 255 255 255
14.1759 0.900559 -31.787 255 255 255
13.9366 0.854011 -31.8968 255 255 255
13.9366 0.854011 -31.8968 255 255 255
-8.43789 5.14645 -36.9824 255 255 255
-1.222 2.24404 -23.4977 255 255 255
12.1971 1.24051 -34.0095 255 255 255
15.6746 0.00883568 -28.3242 255 255 255
13.6221 0.770709 -33.0015 255 255 255
15.0229 0.0142738 -29.8443 255 255 255
16.7973 -0.76081 -26.0484 255 255 255
-6.61674 4.00946 -35.9123 255 255 255
-6.61 4.01135 -35.8451 255 255 255
4.36795 0.729881 -22.5332 255 255 255
14.2115 -0.243546 -31.9587 255 255 255
-6.88939 3.38724 -35.1603 255 255 255
15.0784 -0.863072 -30.407 255 255 255
1.22023 0.728513 -21.8238 255 255 255
14.3976 -0.801751 -32.1577 255 255 255
7.32454 -0.185648 -24.5694 255 255 255
0.276067 0.786934 -22.0262 255 255 255
-10.4427 3.61408 -35.2379 255 255 255
-5.3461 2.60332 -34.4018 255 255 255
-2.1901 1.32172 -24.4206 255 255 255
-2.03482 1.24815 -24.1665 255 255 255
-8.25163 2.96174 -34.6038 255 255 255
-7.2433 2.71835 -34.5501 255 255 255
-8.54844 2.95572 -34.6314 255 255 255
-13.1274 3.78384 -35.3657 255 255 255
13.7486 -1.31249 -31.6279 255 255 255
13.1228 -1.36486 -31.255 255 255 255
13.1228 -1.36486 -31.255 255 255 255
-2.07067 0.832138 -24.0316 255 255 255
1.09428 0.147835 -21.8363 255 255 255
2.2612 -0.158976 -21.8576 255 255 255
-2.08579 0.669841 -23.8178 255 255 255
-14.8003 3.46807 -35.0278 255 255 255
-14.8003 3.46807 -35.0278 255 255 255
-1.57071 0.298743 -23.3857 255 255 255
14.043 -2.22914 -30.4731 255 255 255
-10.0187 1.90537 -33.4213 255 255 255
-10.0232 1.90761 -33.4434 255 255 255
-8.99228 1.62995 -33.0946 255 255 255
-6.95217 1.22593 -32.8903 255 255 255
-0.128804 -0.306936 -22.3423 255 255 255
16.3151 -3.04814 -29.0139 255 255 255
17.3812 -3.32304 -26.6557 255 255 255
-7.90472 1.26535 -32.9039 255 255 255
-9.78887 1.61437 -33.1679 255 255 255
-8.63463 1.39745 -32.8385 255 255 255
-2.73091 0.100668 -24.0293 255 255 255
5.77064 -1.44949 -23.0446 255 255 255
-8.30151 1.25522 -32.7281 255 255 255
-1.15569 -0.303539 -22.8635 255 255 255
-3.19356 0.00644875 -24.1072 255 255 255
-1.69955 -0.409754 -22.734 255 255 255
-2.31654 -0.30582 -23.3784 255 255 255
-6.45688 0.492738 -32.0581 255 255 255
-6.41721 0.412858 -31.9745 255 255 255
-2.27223 -0.433897 -23.3321 255 255 255
0.275238 -0.926248 -22.2877 255 255 255
13.3531 -3.31807 -29.2402 255 255 255
14.0063 -3.4618 -29.1464 255 255 255
-6.85344 0.223076 -31.7914 255 255 255
-12.2064 1.13539 -32.6744 255 255 255
-7.33797 0.254404 -31.7914 255 255 255
-6.61228 0.0393628 -31.5692 255 255 255
-12.0087 0.977253 -32.4751 255 255 255
0.279389 -1.18553 -22.0045 255 255 255
-2.68233 -0.672609 -23.3894 255 255 255
-11.9462 0.895217 -32.5335 255 255 255
-2.75183 -0.713925 -23.2561 255 255 255
-7.58311 0.020068 -31.4883 255 255 255
-2.93632 -0.744217 -23.2816 255 255 255
0.668678 -1.39607 -21.7738 255 255 255
-7.54811 -0.197708 -31.2686 255 255 255
-7.37812 -0.376975 -31.0791 255 255 255
-10.3179 0.0684305 -31.4618 255 255 255
-10.3179 0.0684305 -31.4618 255 255 255
-10.231 0.0197448 -31.3896 255 255 255
-2.81538 -1.11873 -22.8444 255 255 255
3.06264 -2.18383 -21.9495 255 255 255
-8.23379 -0.43885 -31.1156 255 255 255
-9.38852 -0.230539 -31.1578 255 255 255
-1.7284 -1.43736 -22.658 255 255 255
-7.87563 -0.604325 -30.8107 255 255 255
-11.4513 -0.0223873 -31.3442 255 255 255
-10.9936 -0.138944 -31.2551 255 255 255
-7.87271 -0.703465 -30.8444 255 255 255
7.11759 -3.55332 -25.5426 255 255 255
-12.5936 -0.425317 -30.9888 255 255 255
12.555 -4.99818 -27.3348 255 255 255
14.9413 -5.44174 -26.7309 255 255 255
-11.247 -0.713782 -30.6901 255 255 255
-0.0487071 -2.40372 -21.6448 255 255 255
-9.91433 -1.11674 -30.186 255 255 255
10.3854 -4.81269 -27.3731 255 255 255
-9.58877 -1.21938 -30.0502 255 255 255
-9.84058 -1.24543 -30.0604 255 255 255
-9.58129 -1.31953 -30.0587 255 255 255
-2.10046 -2.24928 -22.7445 255 255 255
-1.25247 -2.4732 -21.5376 255 255 255
-7.50704 -1.98467 -29.3195 255 255 255
11.6961 -5.67587 -26.3961 255 255 255
11.6961 -5.67587 -26.3961 255 255 255
9.81725 -5.40877 -26.6485 255 255 255
-7.09174 -2.56871 -28.7084 255 255 255
-11.5396 -1.82759 -29.458 255 255 255
-3.0863 -2.90297 -24.1077 255 255 255
5.83225 -4.68517 -24.2767 255 255 255
-11.2294 -1.89094 -29.4181 255 255 255
1.84402 -3.73307 -21.9895 255 255 255
1.8439 -3.7304 -22.0012 255 255 255
-11.3378 -2.01123 -29.2333 255 255 255
-11.1974 -2.03582 -29.1605 255 255 255
-10.9915 -2.09439 -29.2497 255 255 255
11.4708 -6.21722 -25.946 255 255 255
9.26831 -5.93226 -26.1158 255 255 255
-8.21807 -2.78783 -28.4655 255 255 255
-3.22099 -3.43194 -24.5597 255 255 255
-9.84395 -2.73057 -28.535 255 255 255
-11.5543 -2.79178 -28.4135 255 255 255
-11.5399 -2.79039 -28.375 255 255 255
-11.2842 -2.84682 -28.3295 255 255 255
-0.050111 -4.61925 -23.1867 255 255 255
8.2296 -6.70277 -25.2174 255 255 255
-9.97527 -3.52308 -27.6519 255 255 255
-8.92754 -3.88088 -27.1124 255 255 255
-9.47157 -3.94206 -27.2195 255 255 255
6.93375 -6.99091 -24.4135 255 255 255
6.95148 -7.00989 -24.4476 255 255 255
-9.15329 -4.20667 -26.9419 255 255 255
6.60011 -7.15262 -24.1942 255 255 255
-4.49001 -5.36391 -25.0434 255 255 255
-3.80536 -5.50242 -24.7464 255 255 255
-7.32965 -5.16995 -26.1347 255 255 255
-6.91289 -5.27133 -25.8295 255 255 255
-6.69436 -5.32823 -25.7321 255 255 255
-11.374 -4.75215 -26.2265 255 255 255
-7.86781 -5.34749 -25.8124 255 255 255
-0.32712 -6.8481 -23.5631 255 255 255
-7.52176 -5.79287 -25.2932 255 255 255
-7.41897 -5.83254 -25.3027 255 255 255
-4.98232 -6.42712 -24.6716 255 255 255
-8.25946 -5.97628 -25.0345 255 255 255
-10.5823 -5.89917 -25.0277 255 255 255
-6.35084 -6.63253 -24.4535 255 255 255
7.05639 -9.07038 -22.4018 255 255 255
-6.80542 -6.65327 -24.4116 255 255 255
-8.91029 -6.41249 -24.4707 255 255 255
3.76707 -8.64176 -22.6505 255 255 255
8.96922 -9.79279 -21.8549 255 255 255
-6.6036 -6.98545 -23.9933 255 255 255
-9.07271 -6.61068 -24.3875 255 255 255
-7.6189 -6.87893 -24.0771 255 255 255
5.64 -9.38208 -22.1117 255 255 255
-4.07803 -7.55913 -23.4595 255 255 255
2.97772 -8.81079 -22.3384 255 255 255
-6.49587 -7.24057 -23.6718 255 255 255
-6.49587 -7.24057 -23.6718 255 255 255
-1.53696 -8.10431 -22.9691 255 255 255
-4.38012 -7.59269 -23.1738 255 255 255
-0.435148 -8.35434 -22.8229 255 255 255
-0.916672 -8.26428 -22.8316 255 255 255
2.00204 -8.85782 -22.283 255 255 255
2.3773 -8.9729 -22.2471 255 255 255
-1.02899 -8.36031 -22.7371 255 255 255
5.32023 -9.57706 -21.8317 255 255 255
3.58121 -9.25338 -21.8594 255 255 255
-8.57569 -7.17712 -23.7047 255 255 255
3.74967 -9.33268 -21.9392 255 255 255
4.19196 -9.42775 -21.8493 255 255 255
5.3583 -9.75799 -21.6497 255 255 255
2.01494 -9.16185 -21.9255 255 255 255
2.01494 -9.16185 -21.9255 255 255 255
-5.55389 -7.95124 -23.0512 255 255 255
5.7194 -10.0647 -21.3955 255 255 255
6.00444 -10.1239 -21.3535 255 255 255
6.7303 -10.4201 -20.9225 255 255 255
3.89594 -9.96049 -21.1811 255 255 255
-1.23711 -9.10723 -21.7703 255 255 255
-1.23711 -9.10723 -21.7703 255 255 255
2.268 -9.82351 -21.1994 255 255 255
-0.427239 -9.32397 -21.6082 255 255 255
-1.08664 -9.27491 -21.5624 255 255 255
2.00013 -9.98858 -21.1488 255 255 255
-4.74544 -9.15025 -21.6654 255 255 255
-4.62111 -9.2774 -21.5333 255 255 255
-3.25305 -9.50979 -21.256 255 255 255
-4.17154 -9.41392 -21.305 255 255 255
-4.09623 -9.63946 -21.1375 255 255 255
1.72815 17.499 -43.5793 255 255 255
16.3529 19.466 -53.4283 255 255 255
8.02727 17.4886 -48.8715 255 255 255
8.10625 16.4541 -49.2468 255 255 255
0.652984 15.6642 -44.4797 255 255 255
13.6979 10.2394 -34.3842 255 255 255
13.7802 10.0457 -34.4984 255 255 255
-3.50808 14.0509 -42.6959 255 255 255
0.668527 14.0548 -45.8591 255 255 255
-10.3067 13.0087 -38.1704 255 255 255
-10.1397 12.8919 -38.448 255 255 255
14.7859 5.5872 -25.996 255 255 255
1.0631 12.9109 -45.935 255 255 255
-1.30157 13.0425 -45.2223 255 255 255
13.7037 8.09115 -35.4374 255 255 255
-11.363 12.4344 -37.9218 255 255 255
1.52843 12.312 -45.1788 255 255 255
-9.05336 12.2115 -39.7633 255 255 255
-0.874004 12.441 -45.3304 255 255 255
-10.7522 12.0851 -38.8248 255 255 255
12.4153 6.51261 -31.0436 255 255 255
-9.74851 11.997 -39.5718 255 255 255
-13.2344 11.6783 -36.6049 255 255 255
-0.369408 11.5667 -44.1703 255 255 255
1.16859 11.3191 -44.1296 255 255 255
-15.8642 11.6381 -34.9971 255 255 255
12.4475 8.1116 -38.8912 255 255 255
-9.87897 11.5257 -39.7112 255 255 255
-0.386923 10.9917 -43.7445 255 255 255
-11.3178 11.3648 -38.9793 255 255 255
4.82094 9.43215 -42.3306 255 255 255
4.85376 9.475 -42.5277 255 255 255
-5.91389 11.3573 -43.3776 255 255 255
-12.2876 10.9903 -38.5 255 255 255
15.1285 3.9042 -26.2856 255 255 255
-7.20383 10.8396 -42.1057 255 255 255
-2.51316 10.0846 -42.6734 255 255 255
-9.88407 10.6129 -40.423 255 255 255
-11.3281 10.4236 -39.7481 255 255 255
12.5466 4.93656 -31.9978 255 255 255
-2.74799 9.17331 -41.2799 255 255 255
-9.53842 10.3066 -41.6153 255 255 255
10.2209 6.81919 -39.9677 255 255 255
8.87036 6.89875 -39.9471 255 255 255
-9.64201 10.1922 -41.6329 255 255 255
10.7801 6.49349 -39.697 255 255 255
13.286 5.85956 -38.4823 255 255 255
-10.782 10.0092 -40.8389 255 255 255
13.382 5.70364 -38.3729 255 255 255
-14.0552 10.0733 -39.0363 255 255 255
-6.38618 9.23006 -41.5342 255 255 255
-6.38198 9.21159 -41.4441 255 255 255
-6.00294 9.12901 -41.3975 255 255 255
1.08413 7.63952 -40.154 255 255 255
9.41696 6.04154 -38.9457 255 255 255
9.36121 6.01271 -38.7502 255 255 255
-10.4053 9.62149 -41.3065 255 255 255
-11.9809 9.55451 -40.1254 255 255 255
-12.0732 9.37135 -39.6124 255 255 255
-11.3657 9.29397 -40.7195 255 255 255
-11.3734 9.29887 -40.7507 255 255 255
-11.368 9.20613 -41.3528 255 255 255
-11.4918 9.06926 -40.9137 255 255 255
-15.0539 8.73407 -37.7896 255 255 255
-13.1233 8.67371 -40.6114 255 255 255
-14.1468 8.60497 -39.7944 255 255 255
11.6566 3.61553 -36.2702 255 255 255
-5.4632 6.55991 -38.6577 255 255 255
-12.868 7.71694 -39.5129 255 255 255
-3.59271 5.89887 -38.1261 255 255 255
-5.92013 6.01934 -38.0592 255 255 255
13.9532 1.64181 -31.1118 255 255 255
-8.75019 6.34618 -38.4378 255 255 255
-8.75019 6.34618 -38.4378 255 255 255
7.34381 2.02884 -26.9036 255 255 255
-3.91673 5.32261 -37.3852 255 255 255
-9.60373 6.4101 -38.2945 255 255 255
-9.64482 6.28299 -38.1189 255 255 255
-12.8064 6.84753 -38.6917 255 255 255
12.4501 2.08367 -34.5533 255 255 255
4.11326 1.69571 -22.5477 255 255 255
-6.34628 5.18502 -37.0236 255 255 255
-6.2074 5.07088 -36.9466 255 255 255
-14.116 6.65346 -38.5095 255 255 255
-0.815366 2.37236 -23.2374 255 255 255
-10.5401 5.75469 -37.701 255 255 255
-6.00255 4.8545 -36.8658 255 255 255
-1.87251 2.58804 -24.5306 255 255 255
-10.7002 5.33371 -37.1755 255 255 255
-7.82218 4.63874 -36.6571 255 255 255
11.7897 0.966315 -33.6587 255 255 255
-8.35649 4.63462 -36.3699 255 255 255
13.4972 0.591781 -33.1458 255 255 255
-11.0703 5.08576 -36.7728 255 255 255
13.1482 0.61954 -33.5278 255 255 255
-7.62612 4.29347 -36.2578 255 255 255
-5.85809 3.85252 -35.7867 255 255 255
4.75435 0.747544 -22.7359 255 255 255
-7.45562 3.90579 -35.5242 255 255 255
7.17656 0.372058 -25.0265 255 255 255
-6.83108 3.70712 -35.5746 255 255 255
13.6259 -0.288215 -32.4504 255 255 255
14.2373 -0.551295 -32.1423 255 255 255
-16.2268 4.97521 -36.6126 255 255 255
14.4879 -0.788756 -32.0249 255 255 255
14.2308 -1.04267 -31.7749 255 255 255
-12.7446 3.78798 -35.6493 255 255 255
14.4125 -1.23837 -31.5731 255 255 255
17.3539 -2.10194 -25.8412 255 255 255
-2.743 1.20126 -24.5281 255 255 255
-6.12712 1.9451 -33.6102 255 255 255
2.7656 -0.225654 -21.9321 255 255 255
-3.53544 1.00965 -25.1547 255 255 255
-7.13527 2.05887 -33.6518 255 255 255
-8.01182 2.08937 -33.654 255 255 255
-10.1881 2.37788 -33.9252 255 255 255
-3.17724 0.676711 -24.8547 255 255 255
12.4281 -2.06527 -30.7248 255 255 255
-6.08973 1.20478 -32.9127 255 255 255
13.6642 -2.38323 -30.3432 255 255 255
-9.80697 1.85835 -33.2642 255 255 255
6.04615 -1.29558 -23.2417 255 255 255
-2.98683 0.0653821 -24.1178 255 255 255
13.58 -2.87013 -29.6005 255 255 255
-2.99997 -0.0238506 -24.1267 255 255 255
17.2384 -3.60549 -27.1213 255 255 255
-6.49478 0.647354 -32.1469 255 255 255
-8.94268 0.940701 -32.3279 255 255 255
-3.09497 -0.21837 -23.7884 255 255 255
-7.3506 0.51169 -32.0247 255 255 255
11.6134 -2.94734 -29.4796 255 255 255
-0.103758 -0.881905 -22.2263 255 255 255
-2.55117 -0.654573 -23.3532 255 255 255
-2.32754 -0.77256 -23.264 255 255 255
-2.64798 -0.745909 -23.2802 255 255 255
-8.83607 0.144241 -31.4525 255 255 255
-2.85111 -0.844886 -23.1798 255 255 255
13.9903 -4.11179 -28.4422 255 255 255
-8.70449 -0.00788213 -31.4753 255 255 255
-2.46051 -1.04189 -22.9355 255 255 255
-8.34846 -0.143981 -31.2472 255 255 255
-3.10191 -1.0641 -22.9536 255 255 255
4.27206 -2.46515 -21.9195 255 255 255
-1.49496 -1.4214 -22.5726 255 255 255
-1.25247 -1.49235 -22.5842 255 255 255
-7.25867 -0.64638 -30.7908 255 255 255
-8.95136 -0.402112 -31.067 255 255 255
-8.96351 -0.403103 -31.1361 255 255 255
-0.391409 -1.79344 -22.178 255 255 255
-0.915405 -1.77251 -22.2721 255 255 255
-9.90897 -0.706765 -30.5246 255 255 255
-8.34398 -0.997467 -30.3309 255 255 255
-9.14599 -1.06483 -30.3571 255 255 255
-8.85208 -1.1655 -30.1566 255 255 255
-9.06199 -1.22758 -30.0706 255 255 255
-9.37256 -1.39986 -29.9209 255 255 255
-0.606036 -2.49016 -21.5977 255 255 255
-0.264012 -2.65626 -21.5396 255 255 255
1.11438 -3.09745 -21.0501 255 255 255
11.5047 -6.26459 -25.8278 255 255 255
10.9189 -6.49233 -25.6271 255 255 255
-2.41513 -3.80068 -24.2804 255 255 255
-9.02702 -3.24657 -28.1363 255 255 255
-11.0883 -3.07421 -28.0942 255 255 255
-11.1528 -3.11932 -28.0558 255 255 255
-7.6608 -3.92262 -27.1902 255 255 255
8.31648 -6.82801 -24.8642 255 255 255
7.2538 -6.79797 -24.6436 255 255 255
-14.0002 -3.49078 -27.3032 255 255 255
-9.33424 -4.28307 -26.773 255 255 255
-9.65572 -4.40981 -26.752 255 255 255
-8.37732 -4.8067 -26.2671 255 255 255
-7.99872 -5.04746 -26.0092 255 255 255
-8.12542 -5.08772 -25.9661 255 255 255
-7.04911 -5.36005 -25.8288 255 255 255
-7.9228 -5.38209 -25.6677 255 255 255
-7.92204 -5.37492 -25.6462 255 255 255
-0.388722 -6.47503 -23.5671 255 255 255
1.36537 -6.88113 -23.3163 255 255 255
-0.769471 -6.50422 -23.6433 255 255 255
-5.08036 -6.37184 -24.6994 255 255 255
9.91526 -9.35778 -22.4464 255 255 255
-5.12927 -6.60271 -24.4383 255 255 255
-8.79882 -6.11736 -24.8559 255 255 255
3.83146 -8.38727 -23.0076 255 255 255
-10.1772 -5.95458 -24.9679 255 255 255
-4.0978 -6.96614 -24.0759 255 255 255
-7.92465 -6.36231 -24.6766 255 255 255
-4.60478 -6.89649 -24.1576 255 255 255
-4.77996 -6.99729 -23.9409 255 255 255
3.57956 -8.58051 -22.8552 255 255 255
3.66825 -8.64071 -22.5507 255 255 255
4.37938 -8.87476 -22.5676 255 255 255
-4.02122 -7.26634 -23.5208 255 255 255
-6.6202 -7.08516 -23.9469 255 255 255
3.58222 -8.87906 -22.2926 255 255 255
6.24611 -9.47789 -22.0709 255 255 255
-1.124 -8.15003 -22.9319 255 255 255
-7.14983 -7.19471 -23.8073 255 255 255
-1.31142 -8.15893 -22.9269 255 255 255
-1.19467 -8.20137 -22.9225 255 255 255
-1.09466 -8.2375 -22.9274 255 255 255
-1.09466 -8.2375 -22.9274 255 255 255
2.23238 -8.95209 -22.2173 255 255 255
2.30777 -9.04054 -22.1454 255 255 255
4.31676 -9.56939 -21.7903 255 255 255
-11.5578 -6.86428 -23.7295 255 255 255
-9.56502 -7.22761 -23.4852 255 255 255
-1.45123 -8.68219 -22.4078 255 255 255
2.82881 -9.60344 -21.5935 255 255 255
2.22882 -9.62459 -21.6306 255 255 255
-9.28161 -7.62293 -23.0057 255 255 255
3.78977 -9.90125 -21.127 255 255 255
4.34185 -10.0827 -21.1792 255 255 255
2.89817 -9.84463 -21.3838 255 255 255
0.931442 -9.54569 -21.6378 255 255 255
2.19489 -9.8213 -21.1663 255 255 255
0.686052 -9.62473 -21.5363 255 255 255
3.93961 -10.2713 -20.9632 255 255 255
7.07985 -11.2257 -20.2191 255 255 255
-4.47182 -9.42183 -21.4123 255 255 255
-3.5197 -9.57506 -21.2582 255 255 255
-3.12527 -9.8958 -21.0052 255 255 255
14.2766 18.2667 -52.2561 255 255 255
4.88977 15.1864 -48.2695 255 255 255
-4.1369 14.2949 -41.695 255 255 255
4.86379 14.9 -48.2035 255 255 255
13.3796 9.69544 -35.6335 255 255 255
13.5446 9.42518 -34.7621 255 255 255
-1.36257 14.0115 -43.2863 255 255 255
-10.0703 12.7368 -38.7008 255 255 255
14.7332 5.53712 -26.1478 255 255 255
-5.76177 12.0584 -42.4943 255 255 255
13.2118 7.50642 -37.496 255 255 255
-6.15235 11.5573 -42.9965 255 255 255
-6.15235 11.5573 -42.9965 255 255 255
-0.683593 10.7267 -43.3823 255 255 255
-9.6773 11.3399 -40.1604 255 255 255
10.9004 8.45437 -41.5231 255 255 255
-0.914129 10.5162 -42.925 255 255 255
6.27071 9.27065 -42.2748 255 255 255
-12.3335 11.1817 -38.3876 255 255 255
-9.78856 11.009 -39.9919 255 255 255
2.13254 9.65763 -42.3705 255 255 255
5.90316 8.82999 -41.6126 255 255 255
-3.7059 10.6359 -43.1522 255 255 255
-9.81774 10.7091 -40.733 255 255 255
-8.91689 10.5775 -41.2278 255 255 255
-9.39794 10.5791 -40.9697 255 255 255
15.0716 3.6762 -26.7819 255 255 255
-13.8822 10.79 -38.6015 255 255 255
-9.88395 10.3972 -40.6867 255 255 255
8.84229 7.18671 -40.1768 255 255 255
8.84229 7.18671 -40.1768 255 255 255
-6.20064 9.92567 -42.3015 255 255 255
-13.7168 10.4031 -39.0057 255 255 255
-6.07035 9.68025 -41.9106 255 255 255
-7.86429 9.93591 -42.1149 255 255 255
-7.86429 9.93591 -42.1149 255 255 255
-11.4044 9.89015 -40.1162 255 255 255
12.7747 5.21722 -38.1995 255 255 255
-12.1446 8.82141 -40.6032 255 255 255
-8.34058 7.90261 -39.6734 255 255 255
-10.4739 8.22193 -40.1697 255 255 255
4.73692 2.66692 -23.5152 255 255 255
13.0628 2.88376 -32.4069 255 255 255
-2.33811 6.2155 -38.463 255 255 255
11.2928 3.61104 -36.3655 255 255 255
12.4652 2.80672 -33.8064 255 255 255
12.5738 2.6183 -33.5558 255 255 255
12.7043 2.56239 -33.0363 255 255 255
5.16473 2.11294 -23.5525 255 255 255
-3.56432 5.34947 -37.3627 255 255 255
-12.968 7.07595 -39.1337 255 255 255
12.2479 2.13269 -34.8279 255 255 255
11.6019 2.09319 -34.7897 255 255 255
2.85281 1.77617 -22.0974 255 255 255
-4.73111 4.92719 -37.2287 255 255 255
-8.74771 5.23454 -37.0202 255 255 255
5.11939 1.12994 -23.1286 255 255 255
13.8772 0.652666 -31.982 255 255 255
7.57323 0.697834 -25.5346 255 255 255
-8.97602 4.46409 -36.0644 255 255 255
-1.33056 1.74508 -23.3689 255 255 255
2.44887 0.968785 -21.7856 255 255 255
2.44887 0.968785 -21.7856 255 255 255
-6.29835 3.44592 -35.2691 255 255 255
6.15712 0.20455 -23.9833 255 255 255
6.15712 0.20455 -23.9833 255 255 255
14.2018 -0.71073 -32.1434 255 255 255
-3.67101 1.78119 -25.9771 255 255 255
-7.56707 3.08281 -34.9498 255 255 255
-2.19214 1.26047 -24.3782 255 255 255
-8.77484 3.00682 -34.6224 255 255 255
-7.74506 2.72995 -34.4413 255 255 255
13.8392 -1.23841 -31.2979 255 255 255
-8.66362 2.81867 -34.4297 255 255 255
-7.65527 2.42724 -34.0302 255 255 255
-7.10412 2.25765 -33.9213 255 255 255
-9.19201 2.5877 -33.7652 255 255 255
16.7919 -2.22299 -28.7146 255 255 255
-1.35576 0.448565 -23.1667 255 255 255
-2.37468 0.529169 -23.788 255 255 255
-10.2906 2.26248 -33.9937 255 255 255
-9.78506 1.72727 -33.0786 255 255 255
-2.95695 0.215403 -24.2898 255 255 255
-2.95695 0.215403 -24.2898 255 255 255
3.86181 -1.22314 -22.2182 255 255 255
-9.88048 1.14469 -32.8967 255 255 255
13.8704 -3.19973 -29.4129 255 255 255
13.0701 -3.10142 -29.513 255 255 255
-6.98355 0.460441 -31.9816 255 255 255
-6.54381 0.245643 -31.7994 255 255 255
-1.8903 -1.06109 -22.9434 255 255 255
-2.69764 -0.971302 -22.9887 255 255 255
-9.77633 -0.116644 -31.2209 255 255 255
-8.68437 -0.458481 -30.9462 255 255 255
-11.3644 -0.127357 -31.2399 255 255 255
-11.3644 -0.127357 -31.2399 255 255 255
-10.5547 -0.441784 -30.8922 255 255 255
-10.4167 -0.5389 -30.8997 255 255 255
-10.3722 -0.529337 -30.7358 255 255 255
-8.03032 -0.99662 -30.3775 255 255 255
-9.24397 -0.847028 -30.3964 255 255 255
-12.6035 -0.526068 -30.8454 255 255 255
3.00314 -3.20323 -21.5403 255 255 255
14.0165 -5.80912 -26.4215 255 255 255
11.7888 -5.60977 -26.6388 255 255 255
11.7864 -5.78245 -26.4238 255 255 255
-2.37249 -3.36632 -23.826 255 255 255
1.13779 -4.23108 -22.237 255 255 255
-2.69368 -4.81118 -24.0967 255 255 255
6.71026 -7.05885 -24.2218 255 255 255
-1.97263 -5.20355 -23.592 255 255 255
-7.69631 -4.6158 -26.4802 255 255 255
-6.93311 -4.80133 -26.2917 255 255 255
1.87391 -6.8285 -23.4351 255 255 255
1.87391 -6.8285 -23.4351 255 255 255
9.73445 -9.3199 -22.3862 255 255 255
-7.18855 -6.35517 -24.6833 255 255 255
-8.77661 -6.64335 -24.2224 255 255 255
-0.868412 -8.09034 -22.9359 255 255 255
-3.01342 -7.94554 -23.0943 255 255 255
-7.15435 -7.3623 -23.6023 255 255 255
-0.0782619 -8.62756 -22.7056 255 255 255
-0.0915642 -8.73241 -22.4619 255 255 255
-6.62148 -7.74363 -23.2142 255 255 255
-6.69936 -7.84583 -23.134 255 255 255
5.99937 -10.2047 -21.0987 255 255 255
-4.36794 -8.37074 -22.3601 255 255 255
-4.36794 -8.37074 -22.3601 255 255 255
4.4292 -10.086 -21.2555 255 255 255
-1.07522 -9.65585 -21.3605 255 255 255
6.47929 -11.1755 -20.2195 255 255 255
-4.22474 -9.21532 -21.6943 255 255 255
6.14877 -11.2903 -20.0506 255 255 255
5.6544 -11.4163 -19.9063 255 255 255
16.5494 19.062 -52.8919 255 255 255
3.45001 16.2025 -45.7886 255 255 255
5.85069 16.0095 -47.7201 255 255 255
-6.47999 14.656 -39.6477 255 255 255
-4.67843 14.7909 -41.5132 255 255 255
5.56549 15.3166 -49.128 255 255 255
-4.63003 14.2571 -41.9588 255 255 255
0.500441 14.4247 -45.6198 255 255 255
-8.6249 13.2788 -39.2723 255 255 255
-10.0308 13.1645 -38.0613 255 255 255
-1.2015 13.5671 -44.0782 255 255 255
-0.0426075 13.4373 -45.5245 255 255 255
12.543 7.01052 -30.6779 255 255 255
0.873153 12.1335 -45.0529 255 255 255
12.6927 8.46763 -38.0788 255 255 255
13.3297 5.89373 -28.9559 255 255 255
-4.79266 12.2015 -43.2931 255 255 255
0.959161 11.5048 -44.3896 255 255 255
-6.22527 11.7422 -42.7039 255 255 255
9.25575 9.28323 -42.6474 255 255 255
-9.88606 11.4116 -39.8725 255 255 255
-12.183 11.4086 -38.3972 255 255 255
0.368863 10.5603 -43.3308 255 255 255
-5.62087 11.301 -43.6121 255 255 255
-1.04392 10.3402 -42.8562 255 255 255
7.89723 7.96002 -40.4474 255 255 255
-13.4683 10.6815 -37.5242 255 255 255
-9.63033 10.7368 -40.7745 255 255 255
-4.79487 10.1279 -42.2455 255 255 255
15.6914 3.28103 -25.5024 255 255 255
-9.70048 10.3023 -41.1922 255 255 255
8.25741 7.00899 -39.8555 255 255 255
-10.162 9.88 -39.9359 255 255 255
-14.7638 10.0817 -37.6246 255 255 255
-13.902 10.3125 -39.3977 255 255 255
-11.7331 9.96603 -39.8972 255 255 255
-7.89858 9.65908 -41.8485 255 255 255
-6.8232 9.39078 -41.6412 255 255 255
-11.0533 9.86217 -40.6901 255 255 255
-11.642 9.63579 -40.2819 255 255 255
-10.4791 9.61029 -41.2712 255 255 255
12.4695 4.24844 -32.4297 255 255 255
-7.83173 8.9506 -40.7751 255 255 255
3.5188 3.62854 -24.1969 255 255 255
-8.33268 8.61704 -40.407 255 255 255
15.9677 2.03533 -25.8969 255 255 255
12.7027 3.62234 -32.7487 255 255 255
-15.1217 9.05691 -38.0064 255 255 255
-15.2624 8.93606 -38.0363 255 255 255
-14.899 8.96465 -38.6006 255 255 255
-11.3462 8.73356 -40.7718 255 255 255
-13.7748 8.778 -39.5103 255 255 255
-13.1941 7.63768 -39.8237 255 255 255
0.558165 2.7299 -22.7786 255 255 255
15.3139 1.27542 -28.1429 255 255 255
11.6799 2.02879 -34.7051 255 255 255
3.32301 1.53352 -22.1473 255 255 255
15.7229 0.338336 -28.2833 255 255 255
16.8596 -0.284197 -25.5301 255 255 255
-11.9501 5.55034 -37.6144 255 255 255
-11.9501 5.55034 -37.6144 255 255 255
14.4506 0.364335 -30.8737 255 255 255
-8.7326 4.55371 -36.3047 255 255 255
12.2286 0.657932 -33.5379 255 255 255
-6.86835 4.00959 -36.0619 255 255 255
-5.6941 3.72188 -35.6395 255 255 255
-2.29137 2.0135 -25.0788 255 255 255
-9.01059 4.14228 -36.0268 255 255 255
14.0602 -0.186775 -32.7048 255 255 255
13.9051 -0.383571 -32.369 255 255 255
-6.55744 3.10289 -34.8314 255 255 255
16.63 -1.44201 -27.045 255 255 255
-2.74246 1.50097 -24.718 255 255 255
14.1429 -0.883781 -32.1074 255 255 255
-2.48423 1.27254 -24.4708 255 255 255
13.8783 -1.12323 -31.6375 255 255 255
14.6442 -1.61924 -31.2344 255 255 255
2.26817 -0.0829323 -21.805 255 255 255
3.63297 -0.468465 -22.2484 255 255 255
12.5532 -1.65574 -30.8015 255 255 255
-6.01457 1.63154 -33.1705 255 255 255
-2.68955 0.512564 -23.8985 255 255 255
-10.1349 2.11883 -33.6627 255 255 255
6.55968 -1.22848 -23.1939 255 255 255
-1.61929 0.181864 -23.3404 255 255 255
3.16166 -0.801935 -22.1783 255 255 255
-2.65208 0.231485 -23.913 255 255 255
2.76527 -1.08568 -22.2097 255 255 255
1.46478 -0.902402 -21.9199 255 255 255
-1.82779 -0.372677 -22.8584 255 255 255
13.823 -3.83286 -28.8396 255 255 255
-1.72838 -1.03178 -22.9304 255 255 255
-3.16223 -0.811804 -23.1588 255 255 255
2.86259 -1.96169 -21.8467 255 255 255
-2.01829 -1.16121 -22.8687 255 255 255
2.71338 -2.01185 -21.8769 255 255 255
0.763137 -2.22679 -21.9069 255 255 255
12.3573 -5.02189 -27.38 255 255 255
-12.4487 -0.680944 -30.6643 255 255 255
-11.4147 -0.882854 -30.4618 255 255 255
-8.80078 -1.45308 -29.8813 255 255 255
-10.2905 -2.33675 -29.0615 255 255 255
-10.5948 -2.2926 -28.9722 255 255 255
-7.50202 -3.02003 -28.2252 255 255 255
-2.31704 -3.73892 -24.0406 255 255 255
-9.01404 -3.08063 -28.1934 255 255 255
12.5979 -7.16686 -25.013 255 255 255
-0.0198921 -4.56195 -23.0557 255 255 255
0.202354 -5.24562 -23.5053 255 255 255
-7.75904 -4.7453 -26.3368 255 255 255
3.66784 -8.02631 -22.9494 255 255 255
-8.61276 -6.15251 -24.7758 255 255 255
-8.61276 -6.15251 -24.7758 255 255 255
-6.44905 -6.66359 -24.5502 255 255 255
1.63446 -8.36191 -22.9657 255 255 255
11.1221 -10.3501 -21.5181 255 255 255
8.59589 -9.88354 -21.9652 255 255 255
-1.80609 -8.11322 -22.9496 255 255 255
5.95614 -10.1903 -21.2478 255 255 255
-4.7242 -8.51363 -22.1737 255 255 255
-0.321662 -9.55879 -21.4768 255 255 255
-5.45396 -9.16369 -21.6378 255 255 255
-0.880147 -10.0837 -20.8994 255 255 255
-3.73606 -9.73917 -21.1204 255 255 255
5.13908 15.7602 -47.9021 255 255 255
2.74003 14.2033 -47.6378 255 255 255
12.597 9.53387 -37.5356 255 255 255
-1.0465 12.9405 -44.9912 255 255 255
10.0041 10.198 -43.811 255 255 255
9.44594 9.99455 -43.5706 255 255 255
-2.00398 10.6047 -43.0976 255 255 255
14.3374 4.51616 -28.0828 255 255 255
13.9362 4.56776 -28.8926 255 255 255
0.836245 8.84864 -41.2176 255 255 255
12.3448 5.05929 -32.2717 255 255 255
-5.16674 8.93943 -41.1471 255 255 255
-9.61405 9.69486 -41.238 255 255 255
-11.7738 9.79078 -40.164 255 255 255
-12.7826 9.60454 -39.4679 255 255 255
-2.431 7.90528 -40.1846 255 255 255
-4.94138 8.22459 -40.281 255 255 255
-12.2803 9.19483 -40.2718 255 255 255
-14.3523 8.77206 -39.9575 255 255 255
-14.374 8.17471 -38.6403 255 255 255
-10.6774 7.45796 -39.5389 255 255 255
3.66324 2.10529 -22.5136 255 255 255
-8.12671 5.91079 -37.8368 255 255 255
-11.2938 5.78865 -37.6413 255 255 255
13.0194 1.26665 -33.9705 255 255 255
13.0194 1.26665 -33.9705 255 255 255
14.613 0.134829 -30.9099 255 255 255
14.6435 0.139885 -30.973 255 255 255
-11.2363 5.01825 -36.5881 255 255 255
-11.2363 5.01825 -36.5881 255 255 255
12.2709 0.412611 -33.3239 255 255 255
-16.2223 5.68709 -37.5471 255 255 255
0.994626 1.06396 -21.9193 255 255 255
-6.54997 2.83725 -34.6007 255 255 255
-6.36655 2.57904 -34.4269 255 255 255
-6.3653 2.57569 -34.2964 255 255 255
14.5056 -1.49928 -31.4606 255 255 255
-6.47263 2.05816 -33.6149 255 255 255
-1.82348 0.538946 -23.604 255 255 255
12.0024 -1.89852 -30.5112 255 255 255
-7.08717 0.692495 -32.3445 255 255 255
0.213712 -2.11519 -21.9887 255 255 255
-1.21181 -2.14489 -21.876 255 255 255
-0.673831 -2.2627 -22.3125 255 255 255
-8.96198 -1.58741 -29.5515 255 255 255
-8.99791 -1.5969 -29.6881 255 255 255
-9.75788 -1.51274 -30.1378 255 255 255
12.1427 -5.60801 -26.622 255 255 255
-7.30174 -2.16096 -29.1695 255 255 255
-7.30174 -2.16096 -29.1695 255 255 255
-13.6955 -2.38864 -28.5894 255 255 255
-8.9855 -3.30206 -27.7881 255 255 255
12.427 -7.30754 -24.8382 255 255 255
-7.13597 -5.24649 -25.94 255 255 255
-8.80538 -5.79743 -25.1968 255 255 255
-5.03501 -6.55124 -24.5068 255 255 255
-8.66492 -6.00046 -24.8411 255 255 255
-9.21223 -6.06896 -24.7407 255 255 255
-6.60752 -6.70953 -24.2888 255 255 255
-9.63916 -6.338 -24.4896 255 255 255
3.85272 -8.77236 -22.7364 255 255 255
7.45856 -9.45634 -21.9919 255 255 255
4.87663 -9.6167 -21.6657 255 255 255
-6.84614 -7.66654 -23.2419 255 255 255
0.454336 -9.21162 -21.9365 255 255 255
13.9496 10.4614 -33.6534 255 255 255
13.6365 8.44417 -35.9209 255 255 255
-9.26436 12.5298 -39.5145 255 255 255
7.59003 9.98339 -43.2724 255 255 255
5.35954 9.24726 -42.5284 255 255 255
8.32465 7.42462 -40.2136 255 255 255
9.40456 7.11687 -40.0238 255 255 255
-14.2785 9.62633 -37.8859 255 255 255
-11.7519 9.24565 -39.9234 255 255 255
-11.2915 9.38292 -41.4002 255 255 255
-14.4462 8.98892 -38.8655 255 255 255
-6.71999 5.76147 -37.8012 255 255 255
-5.55439 5.52682 -37.5586 255 255 255
12.3472 1.95251 -34.5291 255 255 255
-10.9179 4.83505 -36.5239 255 255 255
-3.72052 2.3078 -26.5515 255 255 255
14.6621 -0.477972 -31.6094 255 255 255
-6.70023 3.3596 -35.1963 255 255 255
-9.41158 1.40038 -33.2947 255 255 255
-2.58135 -0.0336184 -23.8447 255 255 255
0.480744 -1.36221 -21.8468 255 255 255
-2.07695 -1.60441 -22.3204 255 255 255
-8.23002 -1.63324 -29.8817 255 255 255
-4.24759 -2.29636 -26.4067 255 255 255
-9.1028 -2.28396 -28.7386 255 255 255
11.6504 -6.38968 -26.0338 255 255 255
-6.84583 -4.93821 -26.2342 255 255 255
-8.15267 -4.75074 -26.3897 255 255 255
0.580222 -6.27472 -22.9064 255 255 255
8.67012 -10.0126 -21.602 255 255 255
8.67012 -10.0126 -21.602 255 255 255
7.57079 -9.94047 -21.3963 255 255 255
2.44424 -9.10238 -21.9443 255 255 255
7.13874 -10.3636 -21.0518 255 255 255
5.53651 -10.2429 -21.0859 255 255 255
7.60605 -10.6664 -20.8546 255 255 255
6.02532 -10.3824 -20.9856 255 255 255
12.8951 18.0654 -51.3503 255 255 255
2.07668 14.5005 -47.3123 255 255 255
13.7415 7.89543 -35.8432 255 255 255
12.5268 8.03995 -39.0837 255 255 255
6.69843 9.18334 -42.168 255 255 255
-8.72392 10.3643 -42.0313 255 255 255
-9.03636 10.0309 -41.8477 255 255 255
-0.872378 3.42569 -24.1369 255 255 255
-14.4613 8.09145 -39.5454 255 255 255
0.00526805 2.41611 -22.3394 255 255 255
14.2247 -0.903648 -31.6912 255 255 255
14.0599 -1.27625 -31.4166 255 255 255
0.692907 0.261392 -21.8946 255 255 255
0.692907 0.261392 -21.8946 255 255 255
13.9464 -2.01753 -30.7401 255 255 255
11.7434 -2.75065 -29.5647 255 255 255
-3.27419 -0.613674 -23.3755 255 255 255
-0.136293 -1.20118 -22.0855 255 255 255
-2.3123 -1.1943 -22.9215 255 255 255
-8.45547 -0.906366 -30.5221 255 255 255
-8.22655 -1.13942 -30.4118 255 255 255
-8.22655 -1.13942 -30.4118 255 255 255
-9.47883 -0.967772 -30.3639 255 255 255
-3.95891 -2.18249 -25.5061 255 255 255
-7.78589 -2.81166 -28.4498 255 255 255
3.00976 -4.32223 -22.6358 255 255 255
1.76011 -4.95272 -23.0031 255 255 255
-7.91259 -4.23799 -26.9115 255 255 255
-7.06064 -5.59059 -25.4889 255 255 255
-8.76239 -6.2096 -24.8944 255 255 255
-9.46706 -6.61325 -24.2057 255 255 255
-2.34303 -7.97872 -23.1248 255 255 255
2.69135 -9.86536 -21.4431 255 255 255
2.59416 -10.0011 -21.1639 255 255 255
-2.51409 -0.49471 -23.5569 255 255 255
-2.64199 -4.04977 -24.6775 255 255 255
-7.31426 -5.43484 -26.0125 255 255 255
8.32482 -9.7558 -21.9745 255 255 255
7.486 -10.2185 -21.2459 255 255 255
5.8109 -10.238 -21.1312 255 255 255
4.71843 -10.88 -20.3675 255 255 255
6.42461 16.1443 -48.6458 255 255 255
14.9695 2.86217 -27.5797 255 255 255
-2.3601 1.62216 -24.7169 255 255 255
-1.41069 -1.56943 -22.5729 255 255 255
-2.87122 1.73999 -25.3765 255 255 255
-0.154083 -9.44656 -21.6206 255 255 255
1.48316 0.4624 -21.9951 255 255 255
-2.14224 0.102358 -23.017 255 255 255
-8.03564 12.0087 -40.7615 255 255 255
6.30218 24.9392 -40.1522 255 255 255
13.9849 15.2415 -29.4035 255 255 255
13.5388 16.0447 -30.5387 255 255 255
14.7143 14.4104 -28.8537 255 255 255
15.3381 26.2487 -45.6695 255 255 255
-10.2082 19.172 -32.9278 255 255 255
14.8436 25.3956 -46.3255 255 255 255
-0.20143 21.2942 -38.5693 255 255 255
13.7831 9.53139 -24.5919 255 255 255
14.1556 13.4635 -30.5625 255 255 255
14.1439 12.7658 -30.6738 255 255 255
13.8015 8.77336 -25.1481 255 255 255
-7.50007 18.2804 -35.6864 255 255 255
14.4844 7.94884 -24.4192 255 255 255
13.0219 9.44468 -27.0788 255 255 255
5.91827 20.9652 -44.1986 255 255 255
-7.2965 17.5967 -36.3415 255 255 255
-6.52208 17.6525 -36.8489 255 255 255
-6.52208 17.6525 -36.8489 255 255 255
-1.56901 18.6173 -39.8632 255 255 255
13.4407 8.34152 -26.4289 255 255 255
13.4229 8.24729 -26.2637 255 255 255
-7.21969 17.0971 -36.7875 255 255 255
13.494 7.84169 -26.37 255 255 255
12.6044 13.208 -35.2658 255 255 255
8.12491 20.505 -46.4859 255 255 255
-8.87003 16.519 -36.1092 255 255 255
-8.66196 16.4675 -36.3358 255 255 255
6.54993 19.3492 -45.0427 255 255 255
14.5989 6.32366 -24.6578 255 255 255
-8.74444 16.4735 -36.4137 255 255 255
12.8766 12.3857 -34.6844 255 255 255
0.60372 18.0295 -42.3949 255 255 255
13.1379 11.6714 -34.7848 255 255 255
4.45138 18.6947 -44.9184 255 255 255
14.9173 6.21101 -25.5279 255 255 255
7.31208 18.3949 -46.0874 255 255 255
2.69075 17.9561 -44.366 255 255 255
12.8287 7.85773 -29.1938 255 255 255
14.5733 5.60168 -25.4645 255 255 255
13.8875 10.2057 -33.7395 255 255 255
13.3646 10.9264 -35.197 255 255 255
13.459 10.5911 -34.7517 255 255 255
14.1758 6.25227 -26.9468 255 255 255
4.65083 17.6146 -45.5424 255 255 255
12.9531 10.8679 -35.6318 255 255 255
16.6267 19.2697 -52.3288 255 255 255
16.6267 19.2697 -52.3288 255 255 255
13.67 6.25255 -27.8974 255 255 255
-2.15347 15.9941 -42.0795 255 255 255
13.7576 5.97678 -27.65 255 255 255
14.5029 8.70152 -33.8728 255 255 255
-12.1331 14.0763 -36.3151 255 255 255
12.5128 10.5568 -37.1915 255 255 255
-12.0506 13.8726 -36.2617 255 255 255
13.2199 5.52792 -29.2551 255 255 255
12.9418 5.98136 -30.2237 255 255 255
12.8324 5.9107 -30.4617 255 255 255
-7.33218 13.7181 -39.9029 255 255 255
12.7361 9.17384 -37.4217 255 255 255
14.5951 3.89038 -27.0569 255 255 255
13.196 5.60052 -30.3454 255 255 255
3.70295 15.1429 -47.1844 255 255 255
-6.67075 13.529 -40.2629 255 255 255
12.9757 5.62856 -30.546 255 255 255
-7.97639 13.2762 -39.576 255 255 255
14.5559 4.00146 -27.8638 255 255 255
13.041 5.4731 -30.5344 255 255 255
-8.5945 13.0906 -39.4284 255 255 255
13.9274 4.33695 -28.9251 255 255 255
-12.2081 12.5068 -37.2027 255 255 255
-9.80764 12.8001 -38.8133 255 255 255
0.145898 14.004 -45.1891 255 255 255
13.4439 4.70173 -30.0378 255 255 255
-13.3555 12.4277 -36.8905 255 255 255
-12.5916 12.4211 -37.2928 255 255 255
6.63499 13.6006 -47.2652 255 255 255
-14.724 12.1374 -35.8866 255 255 255
-13.1522 12.3196 -36.8603 255 255 255
-13.0347 12.2423 -36.8608 255 255 255
14.6356 3.3087 -27.7556 255 255 255
-12.5187 12.3007 -37.3527 255 255 255
-14.5237 11.5151 -36.5078 255 255 255
-4.00466 12.6355 -43.6117 255 255 255
-10.994 11.6404 -38.8081 255 255 255
-11.986 11.5964 -38.3026 255 255 255
14.2057 3.02102 -29.423 255 255 255
14.529 2.74244 -28.8943 255 255 255
14.0971 2.9064 -29.4316 255 255 255
-1.1589 3.05651 -24.0456 255 255 255
0.903188 1.88312 -22.0962 255 255 255
14.7134 1.81362 -28.413 255 255 255
-12.0094 10.8635 -38.8962 255 255 255
0.498412 1.83116 -22.2431 255 255 255
-0.756544 10.2853 -43.152 255 255 255
1.08887 1.46781 -21.8823 255 255 255
-15.2329 10.3495 -36.8932 255 255 255
-11.424 10.6745 -39.538 255 255 255
14.6712 1.75469 -29.512 255 255 255
-12.2823 10.3441 -39.5599 255 255 255
-2.32236 9.19274 -41.6375 255 255 255
14.993 1.19418 -29.2182 255 255 255
-14.1924 9.97171 -38.0084 255 255 255
-15.2475 9.71466 -37.719 255 255 255
14.688 0.823643 -30.1851 255 255 255
-3.21366 3.27912 -27.8234 255 255 255
15.1564 0.211927 -29.5483 255 255 255
-3.02599 3.04111 -27.5074 255 255 255
14.5998 0.529235 -30.5085 255 255 255
-14.6929 8.91571 -38.7009 255 255 255
-3.51218 2.78077 -27.1935 255 255 255
-3.70956 2.7487 -27.0697 255 255 255
-1.10242 0.458711 -22.8349 255 255 255
-0.785559 0.304779 -22.7923 255 255 255
-2.82181 5.46779 -37.803 255 255 255
3.02561 -0.930383 -22.1482 255 255 255
-0.804547 0.0264642 -22.6905 255 255 255
0.974036 -0.692691 -22.0128 255 255 255
0.113698 -1.15026 -21.9758 255 255 255
-1.32486 -0.990122 -22.6043 255 255 255
-9.37209 3.46511 -35.1364 255 255 255
-1.06963 -1.90714 -22.1618 255 255 255
-1.32206 -1.95498 -22.0469 255 255 255
-0.878385 -2.60879 -21.828 255 255 255
1.54387 -3.33794 -21.5564 255 255 255
-8.54151 1.12759 -32.6537 255 255 255
-0.393451 -3.06473 -22.0985 255 255 255
-3.70419 -1.98772 -25.1182 255 255 255
-3.80536 -1.99017 -25.1698 255 255 255
0.188268 -3.52147 -22.1597 255 255 255
-0.210137 -3.39541 -22.3657 255 255 255
-2.60327 -2.82273 -24.0339 255 255 255
-9.49456 -0.0831514 -31.0389 255 255 255
0.195805 -3.84649 -22.5755 255 255 255
-7.37231 -0.782522 -30.5165 255 255 255
-2.66843 -3.34714 -24.4868 255 255 255
-1.84274 -3.78182 -23.8313 255 255 255
-2.40488 -3.60583 -24.1665 255 255 255
-8.43273 -1.49659 -29.8355 255 255 255
-7.76432 -1.67786 -29.6183 255 255 255
-9.95988 -2.86322 -28.0116 255 255 255
-8.09825 -3.51095 -27.7531 255 255 255
-7.7051 -3.77978 -27.2491 255 255 255
-7.31339 -4.66899 -26.4913 255 255 255
12.7729 17.2685 -32.3361 255 255 255
-12.3519 18.6233 -31.7905 255 255 255
12.4167 25.0781 -44.8313 255 255 255
16.5088 25.9733 -47.194 255 255 255
16.1086 25.7873 -46.8713 255 255 255
1.7046 19.4268 -37.3966 255 255 255
15.0145 24.1975 -47.3341 255 255 255
8.67009 22.4734 -44.6656 255 255 255
13.7524 8.95079 -25.3752 255 255 255
2.22689 20.1948 -41.6201 255 255 255
14.4516 6.87095 -24.1262 255 255 255
4.62501 20.0653 -43.791 255 255 255
-9.10374 16.9555 -35.6271 255 255 255
-12.6891 16.1878 -33.5884 255 255 255
3.60661 19.3505 -42.9387 255 255 255
5.57775 19.4575 -44.0943 255 255 255
13.9522 21.4031 -49.2138 255 255 255
13.7171 7.9966 -27.0544 255 255 255
-8.9522 16.5089 -36.2048 255 255 255
6.86153 19.5581 -45.6111 255 255 255
13.1646 7.61844 -27.2593 255 255 255
6.52004 18.1058 -45.6803 255 255 255
6.33159 18.1524 -45.8726 255 255 255
4.79601 17.7867 -44.8715 255 255 255
-11.3444 15.1701 -35.8018 255 255 255
-3.98811 16.0443 -40.227 255 255 255
14.3181 5.39601 -26.7128 255 255 255
-7.13662 14.8677 -39.0502 255 255 255
-3.83741 15.2373 -40.9746 255 255 255
13.7424 5.69711 -28.6101 255 255 255
12.6402 6.69046 -30.4961 255 255 255
14.7759 4.41687 -27.2715 255 255 255
13.761 5.16814 -28.7928 255 255 255
13.4792 5.29598 -29.1037 255 255 255
12.3578 6.30654 -31.1346 255 255 255
-11.002 13.1248 -37.542 255 255 255
4.50784 15.6838 -48.3774 255 255 255
14.5516 4.06734 -27.7831 255 255 255
-1.28507 14.039 -44.0819 255 255 255
0.855672 13.7518 -46.1412 255 255 255
-11.8455 12.2336 -37.7941 255 255 255
-14.4638 11.5899 -36.3818 255 255 255
-14.5632 11.2519 -36.4669 255 255 255
-11.873 11.3292 -38.7078 255 255 255
14.5924 2.0084 -28.9274 255 255 255
0.248379 1.57819 -22.1754 255 255 255
-1.78754 3.48223 -27.0997 255 255 255
-2.69421 3.88361 -28.3629 255 255 255
-3.66051 8.4274 -40.6473 255 255 255
-10.8021 9.73058 -40.8081 255 255 255
-15.3758 9.27644 -38.0164 255 255 255
-1.41068 1.25852 -23.3063 255 255 255
-6.09073 7.74525 -39.8834 255 255 255
-2.19685 6.38059 -38.3308 255 255 255
-3.55777 2.66399 -27.1112 255 255 255
3.35357 -0.431255 -22.0818 255 255 255
-2.08311 6.29931 -38.8463 255 255 255
4.95585 -1.05215 -22.5264 255 255 255
-3.71862 5.40075 -37.4676 255 255 255
0.452688 -0.549433 -22.0943 255 255 255
14.2554 -0.491222 -31.9333 255 255 255
-7.77025 5.66447 -37.5893 255 255 255
0.562956 -0.706427 -22.2453 255 255 255
14.8289 -1.08614 -31.2882 255 255 255
-1.96593 -0.8283 -22.9634 255 255 255
-4.9486 2.42847 -34.1142 255 255 255
-5.86935 1.63956 -33.2745 255 255 255
-1.83868 -2.25123 -22.7024 255 255 255
-3.32866 -1.83853 -24.479 255 255 255
-9.21974 0.157954 -31.3814 255 255 255
-3.09523 -2.55091 -23.8233 255 255 255
-7.05388 -0.427685 -31.1746 255 255 255
-9.51391 -0.131296 -31.1654 255 255 255
-7.44894 -0.731577 -30.6061 255 255 255
-3.7137 -2.54541 -25.3373 255 255 255
-3.51483 -2.62752 -25.3378 255 255 255
1.03537 -4.36295 -22.0879 255 255 255
13.3557 10.6379 -24.4398 255 255 255
13.3923 10.5365 -24.7985 255 255 255
8.58756 22.0259 -44.8918 255 255 255
13.2636 9.12623 -26.3601 255 255 255
-13.2815 16.2183 -33.2702 255 255 255
7.41865 20.4161 -45.2013 255 255 255
7.6164 20.4801 -45.9102 255 255 255
7.6164 20.4801 -45.9102 255 255 255
14.8582 6.77547 -25.3663 255 255 255
6.7852 19.1819 -45.8117 255 255 255
8.59571 18.9558 -47.7608 255 255 255
16.6496 19.6653 -52.5336 255 255 255
13.3571 6.90543 -28.582 255 255 255
12.6376 7.49057 -29.8386 255 255 255
3.73288 16.9563 -45.0912 255 255 255
3.82273 16.8892 -45.5653 255 255 255
13.0301 6.8208 -29.2715 255 255 255
13.201 6.61318 -29.1108 255 255 255
9.0885 17.5276 -48.9891 255 255 255
14.431 4.48065 -26.8495 255 255 255
-8.97589 13.8586 -38.5712 255 255 255
3.30945 15.4126 -47.4524 255 255 255
13.6783 4.97959 -29.4037 255 255 255
-11.575 13.1339 -37.7662 255 255 255
-11.4747 12.845 -37.5053 255 255 255
13.9721 4.23561 -29.1065 255 255 255
13.2241 4.95938 -30.4422 255 255 255
13.6351 7.51042 -36.4414 255 255 255
-11.8407 12.3317 -37.6064 255 255 255
-13.3102 12.1841 -36.7884 255 255 255
-6.49662 12.0313 -41.9063 255 255 255
-0.290447 2.42633 -22.8145 255 255 255
-0.290447 2.42633 -22.8145 255 255 255
14.8637 1.98519 -28.747 255 255 255
-0.800802 8.49685 -40.9426 255 255 255
1.32849 0.778584 -21.7667 255 255 255
-3.51563 3.11562 -27.6691 255 255 255
-2.6371 5.71441 -38.0831 255 255 255
-3.35002 0.678337 -24.8366 255 255 255
0.6996 -2.85232 -21.2741 255 255 255
-7.8518 -0.201579 -31.2439 255 255 255
-8.68173 -0.45269 -30.9079 255 255 255
-3.17674 -3.4289 -24.6824 255 255 255
-11.6411 -1.04519 -30.2757 255 255 255
-0.652049 22.3185 -37.3949 255 255 255
-0.652049 22.3185 -37.3949 255 255 255
12.3755 13.5137 -35.711 255 255 255
10.6194 20.834 -48.8397 255 255 255
9.90299 20.4057 -48.146 255 255 255
4.71621 18.3615 -44.9708 255 255 255
8.87425 18.9423 -47.0521 255 255 255
-0.517957 16.1445 -43.0185 255 255 255
3.25488 16.5699 -45.0488 255 255 255
13.8893 6.02478 -27.9901 255 255 255
-0.73039 15.3359 -44.1214 255 255 255
-5.29459 14.052 -41.0673 255 255 255
12.7072 5.10675 -31.457 255 255 255
-14.5945 11.4342 -36.5452 255 255 255
-11.5481 10.5837 -39.7531 255 255 255
-0.840248 8.32548 -41.0217 255 255 255
13.7911 1.46051 -31.7854 255 255 255
14.7808 0.445821 -30.4683 255 255 255
14.7808 0.445821 -30.4683 255 255 255
-0.0741384 -0.0883886 -22.3198 255 255 255
14.5189 -0.652853 -31.4606 255 255 255
14.8218 -0.940593 -31.3084 255 255 255
3.23702 -4.20755 -22.4864 255 255 255
-9.82202 -1.22117 -30.1272 255 255 255
-9.59727 -1.50983 -29.7474 255 255 255
-9.59727 -1.50983 -29.7474 255 255 255
-7.97602 -1.92349 -29.393 255 255 255
-5.64894 20.4587 -34.9135 255 255 255
2.96063 17.5918 -45.9771 255 255 255
-9.24107 12.6485 -39.519 255 255 255
13.5193 3.32343 -30.0995 255 255 255
3.60403 -0.44409 -22.1806 255 255 255
-4.19417 -0.315389 -27.2592 255 255 255
-2.28896 -3.74168 -24.1481 255 255 255
-8.23786 -2.41754 -28.8573 255 255 255
13.8753 6.28322 -28.2452 255 255 255
2.05042 16.3181 -44.6973 255 255 255
0.174801 1.15492 -22.0417 255 255 255
1.72661 0.542679 -21.7446 255 255 255
-3.10986 -0.44446 -23.5051 255 255 255
-2.27417 -1.21785 -22.7632 255 255 255
5.06076 -3.2109 -22.8475 255 255 255
2.26555 -4.81755 -22.9005 255 255 255
-0.43481 -4.24221 -22.9959 255 255 255
12.6905 10.187 -27.364 255 255 255
7.65312 18.6364 -45.9302 255 255 255
-8.40168 13.465 -39.3525 255 255 255
-1.5017 9.33145 -42.0044 255 255 255
14.9057 0.478414 -29.9412 255 255 255
-7.41422 17.5835 -36.2582 255 255 255
15.2646 16.7013 -43.3691 255 255 255
6.50841 21.4402 -43.8207 255 255 255
16.2458 24.0145 -50.0006 255 255 255
14.2125 4.19327 -26.5394 255 255 255
5.49682 14.2465 -47.4824 255 255 255
8.29235 22.4877 -44.1854 255 255 255
17.0965 23.8559 -49.5027 255 255 255
4.97487 20.6499 -43.2438 255 255 255
4.87673 19.9937 -43.7722 255 255 255
10.8651 21.3757 -47.3613 255 255 255
11.7037 21.0303 -47.9915 255 255 255
1.40431 18.8049 -42.0754 255 255 255
11.663 20.786 -48.0913 255 255 255
14.1758 6.29731 -26.8222 255 255 255
10.6536 20.1198 -48.0227 255 255 255
12.487 19.2836 -50.2371 255 255 255
12.6095 10.7739 -37.0176 255 255 255
12.6014 10.6802 -36.8747 255 255 255
-0.80933 12.2039 -35.5617 255 255 255
1.47622 16.138 -43.2988 255 255 255
15.6842 2.68326 -26.2653 255 255 255
15.6761 2.58767 -26.3855 255 255 255
15.754 2.53286 -26.3252 255 255 255
15.5762 2.31345 -26.8325 255 255 255
16.1091 1.76965 -26.1924 255 255 255
12.872 4.65662 -31.3198 255 255 255
12.7887 4.66644 -31.5539 255 255 255
13.3176 3.74161 -30.9937 255 255 255
15.5356 1.56813 -27.5778 255 255 255
13.0913 3.80667 -31.478 255 255 255
15.5629 0.76135 -28.0693 255 255 255
15.5796 0.662194 -28.1753 255 255 255
15.5577 0.329234 -28.3902 255 255 255
0.591247 0.515332 -21.9527 255 255 255
0.591247 0.515332 -21.9527 255 255 255
15.5088 0.067036 -28.7473 255 255 255
15.5171 -0.000608466 -28.7071 255 255 255
15.3564 -0.0450369 -29.1226 255 255 255
15.4782 -0.44546 -29.214 255 255 255
-0.849526 6.71853 -39.0578 255 255 255
-1.53223 6.02689 -38.3923 255 255 255
16.2457 -2.43614 -29.1563 255 255 255
13.6336 -2.48989 -30.1335 255 255 255
-6.06633 5.0627 -37.0278 255 255 255
13.4971 -5.75166 -26.7203 255 255 255
-0.051121 -3.69933 -22.4979 255 255 255
