ply
format ascii 1.0
element vertex 1270
property double x
property double y
property double z
property uchar red
property uchar green
property uchar blue
end_header
-13.3328 15.2126 -33.3649 255 255 255
7.21734 19.9573 -45.7908 255 255 255
7.83589 19.6102 -46.3162 255 255 255
0.406999 16.0535 -43.0982 255 255 255
0.334114 4.07045 -23.8734 255 255 255
-1.74232 14.0034 -43.4968 255 255 255
0.453152 14.3065 -45.7079 255 255 255
-0.757057 1.46335 -22.6952 255 255 255
15.1961 0.957553 -28.7867 255 255 255
-2.95968 -1.12913 -22.8261 255 255 255
-1.07287 -2.25776 -21.5922 255 255 255
-3.35989 -2.19148 -24.4819 255 255 255
-1.36969 -3.34221 -22.7077 255 255 255
-0.905194 -3.78429 -22.7414 255 255 255
-2.31818 -3.37113 -23.7697 255 255 255
2.23529 -6.42236 -23.1887 255 255 255
4.65311 25.059 -38.8346 255 255 255
0.930813 23.6273 -36.9361 255 255 255
-0.0741556 23.1002 -36.6509 255 255 255
5.37407 22.3374 -41.3022 255 255 255
5.64522 22.8581 -42.012 255 255 255
15.1139 20.3668 -50.7922 255 255 255
14.0213 9.89013 -33.9249 255 255 255
2.67831 15.9004 -45.7561 255 255 255
1.0583 2.33512 -22.342 255 255 255
-3.10425 -1.88274 -24.1612 255 255 255
4.97481 -6.54033 -24.1364 255 255 255
4.97481 -6.54033 -24.1364 255 255 255
5.75058 25.1387 -39.7144 255 255 255
2.10946 23.7874 -37.9769 255 255 255
2.10896 23.7855 -37.9751 255 255 255
-4.84794 20.7735 -34.7684 255 255 255
6.28786 24.5989 -41.0409 255 255 255
13.8755 13.5457 -28.3331 255 255 255
1.88066 21.2556 -39.8528 255 255 255
1.8212 20.419 -40.8722 255 255 255
1.80392 20.3921 -40.8066 255 255 255
-3.56119 -0.714956 -23.8045 255 255 255
2.03011 -4.18692 -22.284 255 255 255
1.33549 -4.5603 -22.5874 255 255 255
3.76609 -6.10101 -22.7484 255 255 255
2.16063 23.2643 -39.1967 255 255 255
13.5632 15.7832 -31.0595 255 255 255
13.7427 13.7472 -31.9119 255 255 255
5.73163 20.9321 -44.142 255 255 255
-2.50734 18.0693 -39.7833 255 255 255
10.1528 18.6672 -49.2405 255 255 255
12.9442 18.9002 -50.9721 255 255 255
1.75577 15.8796 -46.2116 255 255 255
1.42235 14.4015 -45.8602 255 255 255
-4.19129 13.3066 -42.6368 255 255 255
-1.84543 1.03086 -23.7157 255 255 255
-2.8612 1.11081 -24.3024 255 255 255
-3.61169 -0.158982 -23.6711 255 255 255
3.8151 -5.53826 -22.9718 255 255 255
13.2932 23.3985 -47.7347 255 255 255
-3.22242 15.3146 -41.0125 255 255 255
-0.666925 14.1116 -44.3245 255 255 255
-0.646917 14.2978 -44.6984 255 255 255
-1.38125 16.1014 -42.1724 255 255 255
4.15899 20.848 -43.7957 255 255 255
-2.47937 30.3881 -36.0527 255 255 255
5.8528 33.6636 -39.3592 255 255 255
5.43675 33.5029 -39.3612 255 255 255
5.91183 33.5247 -39.5094 255 255 255
5.59151 33.4261 -39.6319 255 255 255
5.445 33.0604 -39.8037 255 255 255
24.7362 54.4103 -64.968 255 255 255
5.63497 30.3057 -40.141 255 255 255
-3.23345 24.6226 -35.9502 255 255 255
10.5476 26.9653 -41.2022 255 255 255
8.05334 25.9952 -40.5977 255 255 255
4.12398 24.6656 -38.7342 255 255 255
0.80515 23.037 -37.6055 255 255 255
12.5714 17.4179 -31.671 255 255 255
-0.192013 22.7022 -37.1471 255 255 255
13.6763 15.8655 -29.8933 255 255 255
1.14543 22.7311 -38.1096 255 255 255
12.8393 12.0046 -25.5731 255 255 255
3.67893 23.4086 -39.3566 255 255 255
14.2514 14.9284 -29.5703 255 255 255
13.5404 11.3826 -24.9573 255 255 255
12.5835 16.9165 -32.2788 255 255 255
21.4324 28.3476 -48.347 255 255 255
11.0465 26.1863 -44.6936 255 255 255
12.827 11.7043 -26.5218 255 255 255
-1.02026 21.3705 -37.7073 255 255 255
12.0817 25.2399 -44.3476 255 255 255
14.1284 9.90175 -24.3777 255 255 255
-9.34074 18.7963 -33.4313 255 255 255
10.1087 24.5113 -43.4722 255 255 255
12.6662 16.0891 -32.5954 255 255 255
9.71668 24.4536 -43.3985 255 255 255
-9.06119 18.6821 -33.7086 255 255 255
13.1272 15.2818 -32.0978 255 255 255
13.4349 10.3562 -25.6048 255 255 255
10.9806 24.3748 -44.2372 255 255 255
7.3658 23.356 -42.5439 255 255 255
-4.19958 19.8999 -36.5116 255 255 255
14.0092 13.9295 -30.9023 255 255 255
14.0092 13.9295 -30.9023 255 255 255
0.713433 21.0415 -39.3626 255 255 255
12.9717 10.5257 -26.6029 255 255 255
13.3799 10.1394 -26.1612 255 255 255
8.44584 23.1945 -43.4985 255 255 255
12.9874 14.6603 -32.862 255 255 255
13.8307 9.19776 -25.6259 255 255 255
-8.38834 18.0457 -34.793 255 255 255
6.53356 22.16 -43.0103 255 255 255
8.57697 22.619 -44.0405 255 255 255
7.26123 22.1606 -43.384 255 255 255
13.5722 13.4092 -32.2586 255 255 255
-7.10068 18.029 -35.8968 255 255 255
-7.10403 18.0351 -35.8778 255 255 255
14.5154 23.4247 -47.753 255 255 255
13.8039 8.53817 -26.2009 255 255 255
-4.31072 18.4511 -37.7875 255 255 255
14.6765 7.27329 -24.8977 255 255 255
5.39531 20.7861 -43.3143 255 255 255
14.3401 11.689 -31.5194 255 255 255
14.7535 7.06258 -24.9781 255 255 255
1.82892 19.7154 -41.5529 255 255 255
-3.45209 18.285 -38.5211 255 255 255
13.9848 12.0591 -32.4454 255 255 255
20.0988 24.0777 -51.693 255 255 255
15.6191 22.5447 -49.4213 255 255 255
10.4805 21.4481 -46.8429 255 255 255
14.0648 7.41546 -26.3206 255 255 255
3.54 19.4301 -43.0205 255 255 255
13.6982 7.67349 -26.9675 255 255 255
13.6213 7.62349 -26.8888 255 255 255
14.3414 10.6936 -31.9796 255 255 255
12.7816 12.5865 -34.7259 255 255 255
10.6695 20.7525 -47.4683 255 255 255
14.2431 6.65493 -26.5538 255 255 255
13.0873 7.60037 -28.5215 255 255 255
13.2761 11.0417 -34.5156 255 255 255
13.4512 10.8021 -34.2713 255 255 255
14.5616 5.4244 -26.5762 255 255 255
13.5886 10.008 -34.4752 255 255 255
12.7676 10.9465 -35.943 255 255 255
12.8414 11.0012 -36.0495 255 255 255
13.4457 6.35002 -28.5959 255 255 255
10.9331 18.9252 -49.4667 255 255 255
12.9172 6.69267 -29.6057 255 255 255
6.3344 17.7916 -46.927 255 255 255
14.082 8.79228 -33.7775 255 255 255
-3.03484 15.7439 -41.2753 255 255 255
12.9357 10.1056 -36.0309 255 255 255
13.4638 5.87004 -28.8889 255 255 255
13.4176 5.92798 -28.978 255 255 255
13.6243 9.27139 -34.9781 255 255 255
13.279 5.95675 -29.2526 255 255 255
13.2684 5.95603 -29.2418 255 255 255
14.5747 4.53268 -27.2158 255 255 255
14.2806 4.63479 -27.8865 255 255 255
8.64591 17.3121 -48.8677 255 255 255
15.2853 3.51603 -26.4109 255 255 255
7.31274 16.9223 -48.3483 255 255 255
13.9354 8.27163 -34.9914 255 255 255
15.1158 3.28355 -26.9412 255 255 255
-0.486212 15.2059 -43.8802 255 255 255
15.3744 2.94188 -26.5919 255 255 255
15.8872 2.49255 -25.9672 255 255 255
15.4032 2.86525 -26.5221 255 255 255
13.3111 4.96479 -29.8131 255 255 255
13.2971 4.95326 -29.9078 255 255 255
15.0775 3.11743 -27.1537 255 255 255
13.7138 4.47979 -29.3113 255 255 255
14.6969 3.26044 -27.7829 255 255 255
13.3432 4.54387 -30.151 255 255 255
15.1078 2.67749 -27.3945 255 255 255
14.4853 3.25308 -28.3958 255 255 255
14.4969 3.1972 -28.3706 255 255 255
14.0223 3.64612 -29.2037 255 255 255
-0.295964 14.3436 -44.7911 255 255 255
-0.295964 14.3436 -44.7911 255 255 255
16.9241 0.435071 -24.608 255 255 255
15.5165 1.84306 -26.9795 255 255 255
3.15487 14.5411 -47.3735 255 255 255
0.186003 14.0548 -45.3961 255 255 255
15.017 2.28388 -27.8757 255 255 255
13.9349 3.40429 -29.6608 255 255 255
13.933 3.40533 -29.6599 255 255 255
14.6596 2.70992 -28.7264 255 255 255
17.1789 -0.0740259 -24.4558 255 255 255
2.08907 14.0245 -46.8677 255 255 255
14.4077 2.62251 -29.049 255 255 255
-0.203329 2.33231 -22.7368 255 255 255
-0.544839 2.49936 -23.0652 255 255 255
14.7539 2.17115 -28.6092 255 255 255
14.3821 2.50448 -29.2419 255 255 255
15.129 1.68456 -28.0974 255 255 255
17.1917 -0.459711 -24.6263 255 255 255
15.3401 1.4541 -27.7269 255 255 255
15.1665 1.60006 -28.0586 255 255 255
0.46266 1.63092 -22.0781 255 255 255
14.9889 1.7121 -28.4201 255 255 255
14.9847 1.6865 -28.4948 255 255 255
1.99841 1.00442 -21.7249 255 255 255
14.6442 1.91557 -29.0806 255 255 255
3.50257 0.775923 -22.0547 255 255 255
17.4081 -0.976046 -24.4791 255 255 255
15.4481 1.05666 -27.928 255 255 255
-12.6317 -2.92221 -7.66043 255 255 255
14.5712 1.75425 -29.348 255 255 255
-1.56378 2.45958 -23.9288 255 255 255
-1.1493 2.06186 -23.2448 255 255 255
14.7929 1.44154 -29.0607 255 255 255
15.488 0.766289 -27.9876 255 255 255
14.6009 1.53686 -29.4663 255 255 255
2.19088 0.398671 -21.6895 255 255 255
14.4594 1.51201 -29.7628 255 255 255
-1.7217 3.84323 -27.4109 255 255 255
16.4967 -1.57665 -24.1701 255 255 255
14.4421 1.52406 -29.924 255 255 255
-1.58801 2.01662 -23.7063 255 255 255
3.63845 0.143159 -22.1102 255 255 255
14.7942 1.01171 -29.3837 255 255 255
15.0849 0.72872 -29.0182 255 255 255
15.1596 0.614458 -28.9022 255 255 255
14.5496 1.1676 -29.8763 255 255 255
14.9215 0.574003 -29.361 255 255 255
-2.12282 2.25752 -24.8389 255 255 255
15.3097 0.164543 -28.9082 255 255 255
15.3069 0.169968 -28.912 255 255 255
-1.75789 1.58694 -23.7295 255 255 255
5.8073 -0.253139 -23.4079 255 255 255
14.9234 0.3974 -29.5525 255 255 255
14.9981 0.329451 -29.4938 255 255 255
-1.09491 0.903314 -22.8513 255 255 255
-2.60386 2.41938 -25.7457 255 255 255
14.73 0.276565 -29.9782 255 255 255
1.33812 -0.378291 -21.8063 255 255 255
-0.145526 0.111762 -22.1919 255 255 255
7.21558 -0.905066 -23.7721 255 255 255
-2.11849 1.39213 -24.2876 255 255 255
3.05006 -0.744174 -22.0594 255 255 255
-1.7449 0.905665 -23.5583 255 255 255
15.1421 -0.53937 -29.6688 255 255 255
15.7493 -1.11335 -28.8108 255 255 255
6.45464 -1.27768 -23.2752 255 255 255
6.76852 -1.4239 -23.134 255 255 255
0.603117 -0.6643 -22.0126 255 255 255
-0.552084 -0.226318 -22.4651 255 255 255
16.0734 -1.80986 -28.7115 255 255 255
14.5782 -0.482764 -31.0559 255 255 255
0.189938 -0.682559 -22.1891 255 255 255
-12.5591 -3.4493 -8.25198 255 255 255
-1.44506 -0.458523 -22.6332 255 255 255
4.61758 -2.18072 -22.1441 255 255 255
-0.944744 -0.961391 -22.1304 255 255 255
15.277 -1.8887 -30.4686 255 255 255
15.3084 -1.88973 -30.4976 255 255 255
-1.45931 -0.805849 -22.4956 255 255 255
-1.97471 -0.581155 -22.8515 255 255 255
2.34325 -2.09734 -21.8106 255 255 255
-12.7081 -3.56035 -8.25102 255 255 255
17.3911 -4.00182 -26.9333 255 255 255
-4.29491 1.23797 -26.526 255 255 255
0.414554 -1.69425 -21.7987 255 255 255
-0.760697 -1.36592 -22.1148 255 255 255
1.76764 -2.14487 -21.8397 255 255 255
-3.48089 -0.0549858 -23.9943 255 255 255
0.513818 -1.91809 -21.87 255 255 255
0.590211 -1.96457 -21.85 255 255 255
-6.04581 5.17165 -37.0901 255 255 255
0.0871819 -1.84695 -21.9603 255 255 255
2.77519 -2.77333 -21.3907 255 255 255
-3.25801 -0.550367 -23.4183 255 255 255
16.8517 -3.98078 -28.577 255 255 255
-3.92714 -0.164498 -24.302 255 255 255
-3.01677 -1.0687 -22.812 255 255 255
1.18914 -2.68145 -21.3688 255 255 255
-2.9734 -1.12546 -22.7426 255 255 255
-2.97222 -1.16931 -22.6946 255 255 255
-2.93567 -1.15068 -22.7735 255 255 255
3.23692 -3.20089 -21.5516 255 255 255
-0.916105 -2.07111 -21.8846 255 255 255
-1.18355 -2.251 -21.665 255 255 255
-1.11709 -2.38143 -21.5786 255 255 255
-0.32447 -2.85238 -21.6761 255 255 255
-4.08592 -0.713367 -25.1599 255 255 255
-0.793568 -2.74067 -21.8218 255 255 255
-7.06785 2.99083 -34.7003 255 255 255
12.5001 -4.73915 -27.508 255 255 255
1.85873 -3.67268 -21.8646 255 255 255
3.30836 -3.99716 -22.2734 255 255 255
-7.49843 2.60048 -34.2566 255 255 255
-7.00597 2.35435 -34.0004 255 255 255
3.17329 -4.04213 -22.3353 255 255 255
-3.65666 -1.41263 -24.6868 255 255 255
-1.98031 -2.56324 -22.8145 255 255 255
-0.0982961 -3.46258 -22.1479 255 255 255
-0.320658 -3.39798 -22.2066 255 255 255
2.66272 -4.31553 -22.548 255 255 255
0.193884 -3.77775 -22.4098 255 255 255
-1.86824 -3.16225 -23.2273 255 255 255
-2.49523 -2.912 -23.7076 255 255 255
-2.45054 -2.97714 -23.7111 255 255 255
0.50988 -4.22646 -22.5415 255 255 255
-2.6101 -3.13279 -24.0129 255 255 255
0.200144 -4.32472 -22.7451 255 255 255
-1.14276 53.1262 -55.9863 255 255 255
5.84939 33.6787 -39.122 255 255 255
5.60229 33.6154 -39.5108 255 255 255
-2.64399 29.8325 -36.6699 255 255 255
5.83619 32.9211 -40.143 255 255 255
-1.72007 29.5043 -37.1798 255 255 255
-2.63204 29.1402 -37.1626 255 255 255
2.29191 29.0117 -37.296 255 255 255
5.53471 31.7892 -40.524 255 255 255
-2.42844 28.8293 -37.3564 255 255 255
22.9963 54.2659 -65.1802 255 255 255
-0.895047 27.8302 -36.9003 255 255 255
0.839503 28.2859 -37.7203 255 255 255
-0.935312 27.123 -36.6192 255 255 255
-0.442385 26.0311 -36.4109 255 255 255
-0.125434 26.1734 -36.5615 255 255 255
5.87477 28.6187 -39.5827 255 255 255
-0.730324 26.2406 -36.6941 255 255 255
-0.0452869 25.2239 -36.2427 255 255 255
2.30224 24.6658 -36.8786 255 255 255
4.70839 25.4688 -38.1436 255 255 255
6.30881 25.8594 -39.2987 255 255 255
2.62335 24.3833 -37.685 255 255 255
0.474263 23.0887 -36.905 255 255 255
12.7509 26.9094 -43.2671 255 255 255
10.4358 26.158 -42.258 255 255 255
12.795 16.9322 -31.0117 255 255 255
-5.92527 20.7613 -34.3841 255 255 255
12.5621 12.4921 -25.785 255 255 255
-6.91378 20.3274 -33.9203 255 255 255
13.8746 15.4617 -29.7382 255 255 255
13.8717 15.4915 -29.8775 255 255 255
12.8728 11.9132 -25.427 255 255 255
6.32903 24.3835 -40.7159 255 255 255
-7.61612 19.9744 -33.7323 255 255 255
5.93058 24.3521 -40.6882 255 255 255
12.7878 26.2292 -43.9417 255 255 255
14.8249 26.6814 -44.8844 255 255 255
5.29343 23.8873 -40.3722 255 255 255
9.51933 25.1828 -42.5816 255 255 255
-2.9691 21.1645 -36.1769 255 255 255
10.107 24.8036 -43.3368 255 255 255
10.994 24.9385 -43.8741 255 255 255
8.39405 24.1401 -42.5658 255 255 255
12.593 16.2739 -32.6567 255 255 255
4.68238 23.0431 -40.7164 255 255 255
13.5083 10.5959 -25.4564 255 255 255
3.36324 22.5069 -40.2167 255 255 255
3.37477 22.5264 -40.2438 255 255 255
11.1048 24.4909 -44.2644 255 255 255
14.0929 25.3468 -45.895 255 255 255
11.069 24.2625 -44.481 255 255 255
-3.31195 20.0386 -37.1396 255 255 255
-2.19241 20.2367 -37.7069 255 255 255
5.47372 22.1112 -42.0245 255 255 255
4.38376 21.1048 -40.4217 255 255 255
-2.34387 19.6523 -38.2405 255 255 255
14.2153 12.872 -31.1858 255 255 255
-7.04289 18.2952 -35.7124 255 255 255
-2.36255 19.565 -38.3703 255 255 255
-8.10537 17.9114 -35.2782 255 255 255
-3.40783 19.1464 -37.8689 255 255 255
12.6095 10.1417 -27.8733 255 255 255
-4.57075 18.4635 -37.3645 255 255 255
-3.32517 18.7531 -38.2311 255 255 255
12.3334 13.866 -34.9839 255 255 255
12.8569 22.1076 -47.875 255 255 255
14.2898 11.2154 -32.0979 255 255 255
8.52256 20.432 -46.0308 255 255 255
14.7088 6.35707 -25.506 255 255 255
14.7088 6.35707 -25.506 255 255 255
8.56294 20.3418 -46.2952 255 255 255
1.00141 18.2676 -42.1036 255 255 255
13.649 10.2557 -34.0375 255 255 255
13.649 10.2557 -34.0375 255 255 255
13.649 10.2557 -34.0375 255 255 255
14.7993 5.14929 -26.2864 255 255 255
11.5564 19.2235 -49.3565 255 255 255
16.8181 19.4007 -52.1417 255 255 255
16.6359 19.2491 -52.3485 255 255 255
16.6359 19.2491 -52.3485 255 255 255
-5.3613 15.2864 -39.7371 255 255 255
15.1474 3.70354 -26.1076 255 255 255
15.607 2.86963 -25.9695 255 255 255
13.5043 5.04519 -29.3175 255 255 255
3.09487 2.44754 -22.4322 255 255 255
2.7552 2.24339 -22.1923 255 255 255
-0.0403837 3.18042 -23.2249 255 255 255
-0.128098 3.13928 -23.2332 255 255 255
-0.763742 14.3316 -44.8239 255 255 255
1.72796 2.20454 -22.1408 255 255 255
-0.879533 14.3412 -44.8837 255 255 255
0.92496 2.45209 -22.4312 255 255 255
2.31796 1.69908 -21.9064 255 255 255
14.1053 3.01075 -29.4829 255 255 255
14.4277 2.53488 -28.8578 255 255 255
17.1587 -0.365007 -24.6268 255 255 255
15.2967 1.45228 -27.8686 255 255 255
3.5064 1.00621 -22.0479 255 255 255
15.5312 1.11332 -27.589 255 255 255
13.281 3.07704 -31.4108 255 255 255
0.0849768 1.02377 -22.1124 255 255 255
15.1518 0.805339 -28.6196 255 255 255
15.1881 0.671376 -28.6922 255 255 255
17.542 -1.72689 -24.8791 255 255 255
-1.43288 1.65825 -23.3856 255 255 255
15.4097 0.249474 -28.4572 255 255 255
-0.13874 0.751807 -22.1799 255 255 255
-0.993758 1.19893 -22.8279 255 255 255
0.893787 0.292851 -21.7935 255 255 255
16.6846 -1.12212 -26.477 255 255 255
16.6846 -1.12212 -26.477 255 255 255
1.21345 0.176586 -21.7325 255 255 255
-0.7908 0.876677 -22.6311 255 255 255
-2.19763 2.63349 -25.9378 255 255 255
3.78254 -0.367653 -22.2178 255 255 255
14.521 0.70651 -30.2459 255 255 255
17.1375 -1.91084 -25.944 255 255 255
-2.08796 1.52373 -24.2816 255 255 255
-1.97189 1.35959 -23.9457 255 255 255
-2.06275 1.46223 -24.1933 255 255 255
15.0893 -0.165309 -29.6907 255 255 255
14.7122 0.0584613 -30.2626 255 255 255
-0.0342344 -0.106829 -22.156 255 255 255
-12.4384 -3.25683 -8.14382 255 255 255
1.46729 -0.771475 -21.9024 255 255 255
6.02462 -1.65657 -22.8179 255 255 255
3.08576 -1.35928 -21.9732 255 255 255
1.03673 -1.00843 -22.0529 255 255 255
-12.5185 -3.3977 -8.25401 255 255 255
-12.5653 -3.41436 -8.21148 255 255 255
-12.589 -3.42505 -8.20304 255 255 255
-12.7296 -3.47336 -8.09777 255 255 255
0.54796 -1.23448 -21.9176 255 255 255
3.07174 -2.10385 -21.8564 255 255 255
-0.958161 -1.00267 -22.1608 255 255 255
-4.03786 0.507638 -24.5257 255 255 255
-5.8623 5.79705 -37.7803 255 255 255
3.6543 -2.61222 -21.5932 255 255 255
-3.13779 0.0167986 -24.0799 255 255 255
0.266112 -1.7945 -21.8896 255 255 255
-1.34322 -1.24956 -22.5793 255 255 255
-2.72056 -0.827518 -23.135 255 255 255
-2.93479 -0.764479 -23.1695 255 255 255
1.81391 -2.73892 -21.3379 255 255 255
-1.70803 -1.4897 -22.4966 255 255 255
-3.57218 -0.623964 -23.7945 255 255 255
0.668848 -2.60376 -21.4307 255 255 255
2.68004 -3.2037 -21.4899 255 255 255
0.408286 -2.63489 -21.3775 255 255 255
0.333094 -2.6913 -21.3156 255 255 255
1.92331 -3.19458 -21.41 255 255 255
0.232799 -3.00343 -21.5011 255 255 255
-0.0288096 -2.99483 -21.6507 255 255 255
-0.256037 -3.12684 -21.9012 255 255 255
-0.799307 -3.00203 -22.0742 255 255 255
-0.257173 -3.38129 -22.1605 255 255 255
-0.724095 -3.28321 -22.2854 255 255 255
-0.724095 -3.28321 -22.2854 255 255 255
0.945803 -3.99824 -22.1475 255 255 255
-6.708 0.925694 -32.4603 255 255 255
-6.79643 1.19363 -33.3599 255 255 255
-0.283731 -3.9245 -22.6647 255 255 255
-0.577011 -3.9185 -22.7988 255 255 255
0.768527 -4.58141 -22.7238 255 255 255
-7.46128 0.405518 -32.9918 255 255 255
-1.16437 51.9532 -56.8547 255 255 255
-2.65208 30.6011 -36.2082 255 255 255
5.61937 33.8353 -39.4413 255 255 255
5.65592 33.3654 -39.7045 255 255 255
5.85441 32.2958 -40.6458 255 255 255
6.75265 29.0756 -40.0446 255 255 255
-0.994331 26.3434 -36.9997 255 255 255
-0.173192 25.5215 -36.2752 255 255 255
-7.88639 22.8605 -33.4603 255 255 255
0.415132 24.4178 -36.0761 255 255 255
-8.11865 22.6272 -33.5543 255 255 255
3.93476 25.2722 -37.7319 255 255 255
4.10579 25.1835 -37.9604 255 255 255
10.0038 26.761 -40.9866 255 255 255
8.7376 26.3868 -40.504 255 255 255
15.9275 27.992 -44.6198 255 255 255
11.3328 26.5203 -42.7093 255 255 255
19.7288 29.3584 -47.1119 255 255 255
-7.49643 20.255 -33.5608 255 255 255
4.21659 23.8795 -39.4409 255 255 255
5.72177 24.1587 -40.537 255 255 255
12.9758 11.8556 -25.5498 255 255 255
13.786 10.7795 -24.653 255 255 255
-10.0773 18.8927 -32.779 255 255 255
4.50659 23.2168 -40.5058 255 255 255
-5.23434 20.0644 -35.5983 255 255 255
15.9343 26.2061 -46.2439 255 255 255
3.47811 22.6219 -40.1431 255 255 255
10.1446 24.4124 -43.5317 255 255 255
-0.978905 21.0985 -38.0436 255 255 255
13.8094 14.2014 -31.2607 255 255 255
13.2281 14.7498 -32.0988 255 255 255
16.3401 25.4165 -47.4712 255 255 255
13.9968 24.6142 -46.2329 255 255 255
3.55591 21.7633 -41.0736 255 255 255
-8.77725 18.0643 -34.5188 255 255 255
10.495 23.3022 -45.1715 255 255 255
14.5929 24.1697 -47.3153 255 255 255
13.3229 13.7657 -32.3946 255 255 255
13.3425 13.6861 -32.7432 255 255 255
14.0027 23.7271 -47.1932 255 255 255
6.21085 21.53 -43.1393 255 255 255
14.3829 8.11011 -25.165 255 255 255
-4.28548 18.6315 -37.7085 255 255 255
-2.79004 18.9927 -38.5362 255 255 255
10.9138 22.2117 -46.1266 255 255 255
12.4618 13.8605 -34.5719 255 255 255
12.0935 22.1298 -47.1373 255 255 255
14.355 22.6057 -48.3469 255 255 255
2.05742 19.5451 -41.8399 255 255 255
13.3667 22.311 -48.1944 255 255 255
14.8034 6.81333 -25.1461 255 255 255
19.9346 23.7431 -51.7345 255 255 255
9.63023 21.2053 -46.2513 255 255 255
14.5955 6.57324 -25.106 255 255 255
14.3673 22.1226 -49.2059 255 255 255
18.5431 22.7756 -51.5449 255 255 255
15.8863 21.8907 -50.294 255 255 255
5.57218 19.7291 -44.7293 255 255 255
5.57218 19.7291 -44.7293 255 255 255
14.1461 9.98728 -33.2656 255 255 255
14.2253 9.85853 -33.1169 255 255 255
-6.57259 15.9984 -38.287 255 255 255
3.8101 17.375 -43.6418 255 255 255
6.55568 18.3002 -47.2107 255 255 255
12.4795 7.20306 -30.4088 255 255 255
14.0483 8.87118 -34.1891 255 255 255
12.6294 18.697 -51.0026 255 255 255
7.1954 17.2833 -48.0429 255 255 255
16.5636 1.95393 -24.4208 255 255 255
-4.49113 14.6787 -41.1471 255 255 255
14.6698 3.86758 -27.4901 255 255 255
15.5307 2.87756 -26.3218 255 255 255
1.18145 4.33955 -24.5882 255 255 255
15.3277 2.76197 -26.8534 255 255 255
2.93547 2.41398 -22.3969 255 255 255
3.26767 15.168 -46.9778 255 255 255
2.77856 1.84326 -22.0474 255 255 255
13.0467 4.41687 -30.9653 255 255 255
-1.89473 13.5407 -43.5847 255 255 255
17.0988 0.0751876 -24.506 255 255 255
5.75687 12.3055 -45.5237 255 255 255
-1.2669 2.52236 -23.616 255 255 255
15.3713 1.13218 -27.8752 255 255 255
15.178 1.24883 -28.3337 255 255 255
-1.29047 2.35689 -23.546 255 255 255
-1.47973 1.89427 -23.5146 255 255 255
3.3398 0.0230659 -21.9755 255 255 255
-2.07425 3.38807 -26.8678 255 255 255
-1.64101 1.71337 -23.6562 255 255 255
-2.31514 4.10228 -28.6775 255 255 255
2.02386 0.0307545 -21.7091 255 255 255
6.0612 0.0165503 -23.7558 255 255 255
-2.42498 3.07478 -26.4944 255 255 255
-2.03181 1.99419 -24.3631 255 255 255
14.5982 0.899408 -30.1577 255 255 255
17.2742 -2.0807 -25.749 255 255 255
17.2873 -2.16093 -25.7214 255 255 255
-0.994006 0.70177 -22.7233 255 255 255
17.3772 -2.41388 -25.7771 255 255 255
-12.6843 -3.29319 -7.88847 255 255 255
-1.94559 1.00517 -23.8397 255 255 255
-12.4459 -3.27344 -8.18482 255 255 255
2.9496 -0.992605 -22.1014 255 255 255
-12.6195 -3.29733 -8.07534 255 255 255
-1.64314 0.531702 -23.3968 255 255 255
-1.01386 0.0911557 -22.7744 255 255 255
4.35493 -1.43945 -22.2177 255 255 255
17.2869 -3.02707 -26.3375 255 255 255
-2.48516 6.54466 -38.7504 255 255 255
-12.6293 -3.41051 -8.1208 255 255 255
-12.6761 -3.42221 -8.07979 255 255 255
-1.20231 -0.408836 -22.6613 255 255 255
-1.28522 -0.518734 -22.576 255 255 255
4.67157 -2.34309 -22.0629 255 255 255
5.62784 -2.59018 -22.1586 255 255 255
-4.14424 0.317431 -24.3264 255 255 255
-0.824562 -1.34439 -22.1589 255 255 255
16.9559 -3.87159 -27.8304 255 255 255
3.40642 -2.95876 -21.2841 255 255 255
16.8461 -3.90763 -28.2209 255 255 255
3.20598 -3.02041 -21.3418 255 255 255
1.90617 -2.66339 -21.4422 255 255 255
-3.26328 -0.811536 -23.1829 255 255 255
-3.82786 -0.33671 -24.1965 255 255 255
-3.17792 -0.98625 -22.9491 255 255 255
2.43557 -3.03526 -21.355 255 255 255
1.87999 -2.96074 -21.2271 255 255 255
-0.626805 -2.2468 -21.7756 255 255 255
-1.7116 -2.15825 -22.1315 255 255 255
-1.70538 -2.16224 -22.1371 255 255 255
13.7782 -4.56837 -27.8643 255 255 255
1.82574 -3.46929 -21.6543 255 255 255
-2.91049 -1.82922 -23.1712 255 255 255
-1.92785 -2.32732 -22.5684 255 255 255
-3.75111 -1.20359 -24.6929 255 255 255
-2.09953 -2.29068 -22.7842 255 255 255
-4.35228 -0.794662 -25.8824 255 255 255
-1.30724 -2.92342 -21.94 255 255 255
-7.35011 2.20777 -33.8247 255 255 255
11.9416 -5.64678 -26.5802 255 255 255
-2.16499 -2.85341 -23.2612 255 255 255
-2.47403 -2.86055 -23.649 255 255 255
-3.92289 -2.2777 -24.4628 255 255 255
-2.52819 -2.93522 -23.7947 255 255 255
-3.70098 -2.28523 -25.0088 255 255 255
-6.9614 0.556949 -32.0332 255 255 255
-3.91935 -2.38108 -24.6814 255 255 255
-7.2439 0.287246 -31.7501 255 255 255
-0.854478 -4.02335 -22.7739 255 255 255
5.6845 33.6669 -39.1746 255 255 255
-0.864818 26.0567 -36.9344 255 255 255
-0.798939 25.9028 -36.9333 255 255 255
-8.72592 22.2736 -33.2345 255 255 255
9.31695 26.528 -40.6975 255 255 255
7.9025 25.3822 -41.086 255 255 255
10.759 26.2901 -42.3618 255 255 255
12.7702 16.9924 -31.0479 255 255 255
-9.47935 19.4796 -32.6774 255 255 255
13.3076 16.2641 -30.8594 255 255 255
13.825 10.5872 -24.1389 255 255 255
-7.47315 19.64 -34.0614 255 255 255
4.51029 23.3128 -40.1436 255 255 255
13.9398 25.7831 -45.3078 255 255 255
8.5883 24.1894 -42.6422 255 255 255
12.8882 15.8253 -32.2799 255 255 255
-7.07647 19.2037 -34.4766 255 255 255
13.3291 15.0873 -31.7517 255 255 255
7.6869 23.4884 -42.5801 255 255 255
14.2157 25.2881 -46.2223 255 255 255
19.7187 26.3945 -49.2203 255 255 255
13.6245 13.9897 -31.5361 255 255 255
4.23932 21.8236 -41.4531 255 255 255
14.8395 24.7869 -47.0205 255 255 255
12.6338 15.0013 -33.4903 255 255 255
-1.99909 19.7763 -38.4876 255 255 255
13.9646 24.0239 -46.8829 255 255 255
13.9267 12.9425 -31.4849 255 255 255
14.1893 12.8909 -32.0343 255 255 255
19.5713 24.3957 -50.8946 255 255 255
14.4095 22.8818 -48.2627 255 255 255
16.1965 23.0701 -49.3438 255 255 255
14.8326 22.591 -48.7994 255 255 255
16.7179 22.8564 -49.6975 255 255 255
8.07852 20.8123 -45.2914 255 255 255
13.524 21.9543 -48.4935 255 255 255
12.5076 13.1616 -34.9901 255 255 255
11.1822 21.2114 -47.513 255 255 255
14.6379 6.29069 -25.2324 255 255 255
4.44846 19.2494 -44.1625 255 255 255
13.0784 11.8113 -34.6577 255 255 255
13.0924 11.8153 -34.6758 255 255 255
13.456 6.87435 -28.0491 255 255 255
13.054 10.3258 -33.5873 255 255 255
6.71451 18.8306 -46.1575 255 255 255
14.1263 9.78397 -33.3544 255 255 255
13.6088 10.3074 -34.2456 255 255 255
17.2672 20.2701 -52.5948 255 255 255
-1.9704 16.4798 -41.4417 255 255 255
13.2806 9.95916 -35.4291 255 255 255
13.2655 9.94554 -35.4033 255 255 255
16.4529 19.3632 -52.6689 255 255 255
16.7206 19.1358 -52.3065 255 255 255
11.7545 18.4219 -50.2022 255 255 255
-3.50028 15.5261 -41.0984 255 255 255
0.537108 16.1569 -43.5583 255 255 255
3.82461 16.361 -46.0457 255 255 255
14.6777 4.04504 -27.5012 255 255 255
14.5686 4.03422 -27.7399 255 255 255
2.76111 4.44056 -24.7938 255 255 255
15.5232 2.87775 -26.0632 255 255 255
2.42488 2.35325 -22.1837 255 255 255
0.00805663 3.03082 -23.0553 255 255 255
-0.520092 3.26118 -23.5896 255 255 255
16.8386 0.134081 -25.0805 255 255 255
-0.647542 2.63286 -23.1657 255 255 255
1.44946 1.55429 -21.8475 255 255 255
1.21107 1.60012 -21.8965 255 255 255
1.03435 1.34675 -21.8496 255 255 255
17.2538 -0.629029 -24.6217 255 255 255
15.1381 1.20361 -28.453 255 255 255
-1.67635 1.9323 -23.723 255 255 255
14.9309 0.752174 -29.3016 255 255 255
-1.29914 1.37979 -23.1189 255 255 255
15.4828 0.0343149 -28.5824 255 255 255
15.4828 0.0343149 -28.5824 255 255 255
1.36724 0.0542626 -21.8655 255 255 255
-1.39193 1.10417 -22.9313 255 255 255
-3.18737 3.52015 -27.9144 255 255 255
17.4053 -2.24396 -25.624 255 255 255
-2.01638 1.50991 -24.0838 255 255 255
-1.70539 1.05347 -23.5321 255 255 255
17.2677 -2.40534 -26.0649 255 255 255
2.2125 -0.975012 -22.1259 255 255 255
-1.56241 -0.365331 -22.6972 255 255 255
-0.0172786 -1.05534 -22.0503 255 255 255
0.430454 -1.23225 -21.8739 255 255 255
-0.0335272 -1.17813 -21.9494 255 255 255
-12.6096 -3.51524 -8.34369 255 255 255
-12.4697 -3.47828 -8.55021 255 255 255
-12.4697 -3.47828 -8.55021 255 255 255
0.712785 -1.90288 -21.7795 255 255 255
-4.45602 0.251426 -24.5394 255 255 255
-2.78253 -0.766321 -23.1636 255 255 255
-4.16308 0.790562 -26.7323 255 255 255
-3.41321 -0.62731 -23.3651 255 255 255
-5.66769 4.1861 -36.0088 255 255 255
-6.14348 4.14652 -35.9876 255 255 255
-1.01713 -2.07088 -21.9224 255 255 255
-0.283356 -2.49301 -21.4397 255 255 255
-7.30625 2.81511 -34.4937 255 255 255
2.04188 -4.15643 -22.3323 255 255 255
-3.0702 -2.40096 -23.687 255 255 255
-0.206735 -3.58151 -22.4049 255 255 255
-3.12331 -2.49276 -23.9627 255 255 255
-0.258378 -4.09438 -22.7909 255 255 255
0.936462 -4.53109 -22.6152 255 255 255
0.223118 -4.30715 -22.6622 255 255 255
-3.61547 -2.61614 -25.1786 255 255 255
5.46361 33.4993 -39.6036 255 255 255
5.33303 33.6488 -40.2483 255 255 255
-0.721483 26.0023 -36.7648 255 255 255
0.0949247 25.558 -36.3587 255 255 255
-2.80991 24.8616 -35.93 255 255 255
1.52128 24.3476 -37.2284 255 255 255
7.48543 25.9805 -39.8927 255 255 255
7.10574 26.0649 -40.0768 255 255 255
12.9517 17.6663 -30.9446 255 255 255
0.323271 22.8736 -37.3562 255 255 255
12.8173 16.7156 -31.8468 255 255 255
-10.0588 18.7382 -32.936 255 255 255
-8.56201 18.9112 -33.9373 255 255 255
12.8241 11.2733 -26.3416 255 255 255
4.16733 22.1169 -41.0524 255 255 255
14.2892 13.3786 -30.6374 255 255 255
14.3322 24.5313 -46.768 255 255 255
4.96394 21.2274 -42.575 255 255 255
-6.90161 17.7741 -36.2883 255 255 255
13.9201 11.9731 -32.3924 255 255 255
12.6679 13.329 -34.533 255 255 255
12.6679 13.329 -34.533 255 255 255
12.9006 7.80512 -27.4786 255 255 255
-4.73228 16.8438 -38.9615 255 255 255
15.1212 6.00965 -26.1493 255 255 255
15.8269 16.7464 -44.3529 255 255 255
14.0043 10.0261 -33.6106 255 255 255
13.3206 6.52157 -28.825 255 255 255
12.7996 6.93742 -30.0408 255 255 255
13.394 5.65602 -29.2131 255 255 255
13.1966 5.74808 -29.6553 255 255 255
13.1999 5.74949 -29.6624 255 255 255
13.1544 5.72778 -29.6015 255 255 255
0.283092 15.1606 -44.3969 255 255 255
14.6485 3.72277 -28.0884 255 255 255
13.1348 5.13656 -30.4053 255 255 255
13.0572 5.14277 -30.2113 255 255 255
0.427019 15.169 -45.3009 255 255 255
0.247964 14.8954 -44.7002 255 255 255
3.62262 15.2265 -46.6913 255 255 255
0.264074 14.7163 -45.0335 255 255 255
0.264074 14.7163 -45.0335 255 255 255
1.23315 15.2397 -46.5182 255 255 255
14.9247 2.104 -28.3302 255 255 255
17.0561 -0.180498 -24.7151 255 255 255
-1.79743 2.5547 -24.3384 255 255 255
1.50248 0.542518 -21.7464 255 255 255
-1.80063 1.84344 -23.9016 255 255 255
17.3319 -2.23301 -25.7746 255 255 255
2.27837 -0.521601 -21.8381 255 255 255
0.365641 -0.0804921 -21.984 255 255 255
17.4411 -2.81914 -26.0302 255 255 255
16.9864 -2.42158 -26.7663 255 255 255
-1.20815 0.172663 -22.9234 255 255 255
-3.61437 1.83537 -26.0651 255 255 255
-12.5474 -3.38258 -8.20753 255 255 255
-0.863112 -0.454093 -22.634 255 255 255
2.71472 -2.03537 -21.8107 255 255 255
-4.17264 1.1568 -25.8326 255 255 255
17.2284 -3.78267 -27.1557 255 255 255
17.2202 -3.9038 -27.2536 255 255 255
16.9725 -4.00137 -27.938 255 255 255
-6.35295 4.50758 -36.3937 255 255 255
-2.96852 -1.07668 -22.8659 255 255 255
0.0452679 -2.40925 -21.5669 255 255 255
-1.94662 -2.2369 -22.4949 255 255 255
-6.07838 1.63382 -33.3703 255 255 255
-1.95879 -3.17992 -23.3272 255 255 255
-1.95879 -3.17992 -23.3272 255 255 255
-2.73606 -2.84704 -23.8911 255 255 255
-2.80237 29.673 -37.2758 255 255 255
-2.46379 29.1258 -37.136 255 255 255
2.16338 29.0963 -37.2758 255 255 255
-7.97496 23.8596 -32.4775 255 255 255
5.25609 28.847 -39.4005 255 255 255
1.4118 26.4578 -37.1489 255 255 255
1.4118 26.4578 -37.1489 255 255 255
-0.0209761 24.8925 -36.2487 255 255 255
0.413364 24.0621 -36.2477 255 255 255
-1.44496 22.4002 -36.0625 255 255 255
13.4226 16.0267 -30.7059 255 255 255
1.43368 22.4754 -38.5991 255 255 255
-3.93256 18.8517 -37.7516 255 255 255
19.4064 24.1297 -51.062 255 255 255
3.45123 19.2474 -43.6619 255 255 255
12.7363 11.9767 -35.282 255 255 255
-0.0103341 17.7701 -41.9161 255 255 255
12.7295 7.83737 -28.9227 255 255 255
9.39887 18.2795 -49.464 255 255 255
13.5234 9.35506 -35.158 255 255 255
9.92479 17.9452 -49.6409 255 255 255
12.2427 6.17458 -31.3349 255 255 255
12.9531 5.30636 -30.3345 255 255 255
15.916 2.07776 -25.9349 255 255 255
17.055 0.446965 -24.1991 255 255 255
12.9031 4.45776 -30.4259 255 255 255
17.042 0.13902 -24.6179 255 255 255
-1.17522 2.87755 -23.8401 255 255 255
1.0429 1.25987 -21.9953 255 255 255
0.987135 1.04264 -21.8323 255 255 255
16.8489 -0.603951 -25.5534 255 255 255
-1.58432 2.21508 -23.7812 255 255 255
0.209302 0.922315 -22.0908 255 255 255
1.07731 0.573685 -21.7673 255 255 255
-0.932552 1.20805 -22.7483 255 255 255
2.27998 -0.311033 -21.7959 255 255 255
-1.48237 1.01203 -23.2705 255 255 255
-4.07869 1.34634 -25.4365 255 255 255
-12.5269 -3.44423 -8.32038 255 255 255
-4.21505 0.748841 -25.0181 255 255 255
17.3494 -4.01698 -27.1288 255 255 255
17.3494 -4.01698 -27.1288 255 255 255
-5.13423 5.01913 -36.961 255 255 255
-3.46696 -0.34708 -23.5793 255 255 255
-2.76561 -1.1732 -22.7463 255 255 255
0.989034 -2.62866 -21.4675 255 255 255
-2.03069 -1.64294 -22.3139 255 255 255
0.409096 -3.60719 -22.0318 255 255 255
-6.43752 1.45447 -33.0934 255 255 255
-2.2027 -3.00887 -23.4265 255 255 255
1.89016 27.1615 -37.5621 255 255 255
3.08163 27.0842 -37.946 255 255 255
-7.17664 20.3231 -33.7309 255 255 255
13.5111 11.2196 -24.68 255 255 255
8.02878 24.8123 -41.7972 255 255 255
14.2687 10.1361 -24.6247 255 255 255
-0.333621 20.7932 -38.2356 255 255 255
12.6592 15.6366 -32.9085 255 255 255
14.5761 24.0198 -47.0744 255 255 255
12.194 21.9537 -47.5636 255 255 255
14.0847 6.14365 -27.2162 255 255 255
1.32461 16.1544 -44.5987 255 255 255
1.27001 15.9751 -45.1314 255 255 255
0.361831 2.24939 -22.3333 255 255 255
17.2555 -0.214151 -24.3301 255 255 255
0.102625 2.21596 -22.4871 255 255 255
1.95451 1.52167 -21.8617 255 255 255
13.3257 3.7207 -30.7543 255 255 255
-0.0500875 1.84815 -22.4135 255 255 255
-0.0547097 1.85001 -22.4356 255 255 255
-1.33898 2.54115 -23.7101 255 255 255
-2.08562 2.46127 -25.074 255 255 255
-1.84283 1.5963 -23.8442 255 255 255
2.32188 -0.750183 -21.9003 255 255 255
-12.5029 -3.31423 -8.1888 255 255 255
-0.123356 -1.2034 -21.9709 255 255 255
-2.5467 -1.31801 -22.63 255 255 255
-1.66819 -1.85363 -22.088 255 255 255
-1.53907 -1.94435 -21.9486 255 255 255
-0.968308 -3.27882 -22.333 255 255 255
-3.92998 -1.68736 -25.4637 255 255 255
-6.8033 1.04372 -33.2068 255 255 255
-7.12633 0.662663 -32.2572 255 255 255
6.25502 25.7531 -39.7319 255 255 255
0.366157 23.0575 -37.0677 255 255 255
-7.90303 20.0901 -33.3768 255 255 255
-10.0975 19.3319 -32.3937 255 255 255
19.994 25.7542 -50.0526 255 255 255
15.068 4.08729 -26.1712 255 255 255
-0.884495 3.38508 -24.0721 255 255 255
-1.91783 2.65727 -24.7542 255 255 255
-12.8024 -3.51811 -7.98536 255 255 255
-12.5085 -3.7777 -8.81794 255 255 255
-3.80057 -1.82133 -24.1091 255 255 255
-2.20772 -2.89461 -23.2946 255 255 255
12.7062 10.8125 -26.0411 255 255 255
7.88203 22.534 -43.0834 255 255 255
16.3651 22.3847 -50.2174 255 255 255
0.389023 18.4567 -41.2299 255 255 255
14.05 20.0341 -50.8979 255 255 255
3.54774 16.4317 -45.909 255 255 255
3.89449 15.4484 -46.7035 255 255 255
0.496658 1.52706 -22.0416 255 255 255
-1.07189 -2.28825 -21.6257 255 255 255
4.05688 25.3752 -38.0063 255 255 255
13.0495 21.8207 -47.9657 255 255 255
2.20891 1.00871 -21.6867 255 255 255
-1.14234 0.909136 -22.9193 255 255 255
-12.7665 -3.36932 -7.77795 255 255 255
-0.933957 -0.696736 -22.3349 255 255 255
17.3039 -3.57768 -26.9759 255 255 255
2.40696 -3.54777 -21.8147 255 255 255
2.40653 -3.55575 -21.7999 255 255 255
-3.92266 -1.76359 -25.414 255 255 255
3.2677 24.5749 -38.3842 255 255 255
-12.6768 -3.43569 -8.11984 255 255 255
8.68502 21.5386 -45.0525 255 255 255
-1.00231 1.73926 -23.1369 255 255 255
1.44995 22.6537 -38.4132 255 255 255
-6.69324 19.2722 -35.1448 255 255 255
5.83779 21.0882 -44.3983 255 255 255
-3.59606 21.49 -36.5638 255 255 255
-14.3397 3.03184 -8.37191 255 255 255
-12.9894 -0.606929 -8.62383 255 255 255
-30.6962 18.121 -49.8531 255 255 255
-30.4273 18.3097 -50.1395 255 255 255
-31.7106 23.8666 -53.3761 255 255 255
-27.5009 28.6409 -42.3055 255 255 255
-23.7692 24.5419 -38.6108 255 255 255
-24.1674 17.5048 -44.6849 255 255 255
-23.9105 27.2138 -39.1209 255 255 255
-21.9708 21.6815 -37.262 255 255 255
-21.0843 22.9599 -34.4543 255 255 255
-21.1286 22.3574 -35.2816 255 255 255
-20.9739 19.6837 -36.9474 255 255 255
-26.6656 36.2489 -43.9706 255 255 255
-20.3978 13.1967 -40.8525 255 255 255
-19.5562 16.951 -36.4825 255 255 255
-22.5621 29.596 -39.4927 255 255 255
-22.7049 29.8664 -39.8917 255 255 255
-22.744 30.0334 -40.6719 255 255 255
-22.1144 29.2565 -39.5202 255 255 255
-22.5787 30.7848 -40.242 255 255 255
-17.4778 18.3315 -31.5155 255 255 255
-17.4778 18.3315 -31.5155 255 255 255
-17.2904 14.8126 -33.8313 255 255 255
-17.1859 17.7509 -31.3847 255 255 255
-22.9227 35.307 -41.6208 255 255 255
-16.3998 11.0065 -35.3168 255 255 255
-15.73 17.6222 -29.0858 255 255 255
-20.2893 29.3102 -38.017 255 255 255
-21.7835 31.232 -43.4662 255 255 255
-15.5931 14.281 -31.5072 255 255 255
-19.9308 29.1047 -37.8807 255 255 255
-15.8655 11.8326 -35.0337 255 255 255
-19.9248 29.4734 -38.2113 255 255 255
-15.7391 10.6183 -36.0137 255 255 255
-15.5082 16.9523 -30.4556 255 255 255
-15.3132 17.8775 -29.4542 255 255 255
-18.7348 27.0125 -36.0826 255 255 255
-15.4875 9.89258 -36.9232 255 255 255
-15.4919 19.0235 -30.0684 255 255 255
-19.3337 30.9276 -37.07 255 255 255
-15.3539 11.0965 -35.7955 255 255 255
-10.5065 -3.82295 -27.3571 255 255 255
-15.3476 9.17699 -37.7942 255 255 255
-18.9956 31.5503 -36.0127 255 255 255
-10.4564 -3.47293 -27.3193 255 255 255
-19.0767 29.8834 -38.2225 255 255 255
-19.0742 29.7249 -38.4209 255 255 255
-10.3803 -3.70259 -27.3432 255 255 255
-15.2714 19.7093 -30.2179 255 255 255
-18.7897 29.6021 -38.354 255 255 255
-18.8396 30.7172 -37.8731 255 255 255
-18.7462 30.4272 -37.4858 255 255 255
-15.0091 10.4135 -37.0844 255 255 255
-15.0344 9.39419 -38.2715 255 255 255
-18.6845 29.9805 -38.428 255 255 255
-14.8414 8.48111 -38.622 255 255 255
-14.6558 13.892 -34.0544 255 255 255
-18.5332 31.2999 -37.8408 255 255 255
-14.4658 13.3531 -34.5577 255 255 255
-14.5094 11.3205 -36.4865 255 255 255
-14.436 14.6181 -33.508 255 255 255
-14.953 21.3238 -30.4611 255 255 255
-15.479 23.4071 -31.9173 255 255 255
-14.1408 15.2556 -32.625 255 255 255
-15.0984 21.2667 -32.3771 255 255 255
-13.9345 18.3201 -30.0566 255 255 255
-14.0193 10.9424 -36.7753 255 255 255
-14.7547 22.3203 -31.2095 255 255 255
-15.2961 24.3769 -32.4404 255 255 255
-14.0466 19.4092 -30.484 255 255 255
-13.6169 15.9701 -30.9209 255 255 255
-13.7561 18.0821 -30.7686 255 255 255
-14.5876 23.0488 -31.4631 255 255 255
-13.5939 18.225 -30.6902 255 255 255
-12.2059 4.03948 -35.7824 255 255 255
-12.9631 17.2396 -29.5019 255 255 255
-13.5988 19.0814 -30.5158 255 255 255
-13.578 11.7645 -37.2071 255 255 255
-13.7096 20.099 -30.7872 255 255 255
-13.2806 11.7066 -36.9667 255 255 255
-13.1862 15.9987 -32.8254 255 255 255
-12.2846 16.5835 -27.2402 255 255 255
-13.2835 12.5101 -36.8307 255 255 255
-13.2835 12.5101 -36.8307 255 255 255
-13.0639 17.899 -31.4046 255 255 255
-14.2447 23.7393 -33.1668 255 255 255
-13.0487 12.5979 -36.588 255 255 255
-12.8573 16.3638 -33.6789 255 255 255
-8.12705 -5.11781 -25.9092 255 255 255
-14.1609 25.8198 -32.5335 255 255 255
-13.9284 25.0477 -32.3323 255 255 255
-14.094 25.9187 -32.5233 255 255 255
-13.8626 25.4189 -32.3745 255 255 255
-16.0558 34.3452 -40.0119 255 255 255
-11.9438 18.3016 -29.4636 255 255 255
-12.219 10.0781 -39.2892 255 255 255
-12.156 12.3708 -37.17 255 255 255
-12.1455 16.7723 -33.0847 255 255 255
-12.1455 16.7723 -33.0847 255 255 255
-9.35743 0.166471 -31.5183 255 255 255
-15.6071 33.5315 -39.6837 255 255 255
-15.4835 33.3871 -39.8908 255 255 255
-7.26985 -5.96924 -24.986 255 255 255
-11.9156 17.3544 -32.8734 255 255 255
-8.98954 -0.286795 -31.1385 255 255 255
-9.07618 0.211077 -31.4793 255 255 255
-13.065 26.5917 -32.9992 255 255 255
-11.3073 14.0202 -36.676 255 255 255
-11.3415 19.0136 -31.5678 255 255 255
-14.9277 35.5069 -41.0884 255 255 255
-8.5565 0.00687424 -31.2786 255 255 255
-14.9777 36.2003 -41.5274 255 255 255
-10.4545 7.05277 -39.3637 255 255 255
-11.053 18.1103 -32.6042 255 255 255
-12.0576 24.9612 -32.9992 255 255 255
-12.0781 25.0154 -33.0547 255 255 255
-10.7615 10.9847 -39.6565 255 255 255
-8.87882 3.87878 -35.6233 255 255 255
-6.08398 -7.00283 -24.0172 255 255 255
-10.452 18.7031 -32.6952 255 255 255
-10.3603 16.916 -34.3687 255 255 255
-10.4273 18.6649 -32.9072 255 255 255
-13.4068 35.0672 -41.7475 255 255 255
-13.6955 36.9031 -42.4447 255 255 255
-8.26859 2.71708 -34.4218 255 255 255
-7.81722 1.89093 -33.3363 255 255 255
-5.66117 -6.81461 -23.644 255 255 255
-5.0552 -9.4901 -21.1787 255 255 255
-10.2673 30.9171 -34.9903 255 255 255
-12.6684 37.4912 -43.2147 255 255 255
-9.30698 14.0984 -37.9344 255 255 255
-9.03185 11.5087 -40.3895 255 255 255
-11.9552 35.9571 -42.5859 255 255 255
-9.00886 15.0998 -37.4264 255 255 255
-4.58106 -9.87479 -20.9445 255 255 255
-6.91725 2.20899 -33.8713 255 255 255
-7.00662 2.27349 -34.7414 255 255 255
-8.68395 17.2192 -35.6644 255 255 255
-11.053 35.4319 -42.5708 255 255 255
-8.45953 17.3164 -35.7654 255 255 255
-8.45061 17.9799 -34.7995 255 255 255
-8.49415 19.5045 -33.6115 255 255 255
-7.20133 6.23728 -38.2067 255 255 255
-10.7942 35.4787 -42.6228 255 255 255
-4.14986 -9.4948 -21.3562 255 255 255
-7.54533 13.3495 -39.6855 255 255 255
-4.03749 -9.97881 -20.8294 255 255 255
-7.59868 17.5271 -36.5015 255 255 255
-9.39456 35.9328 -43.3069 255 255 255
-7.42074 23.6959 -33.0419 255 255 255
-6.72659 18.6325 -35.4869 255 255 255
-3.39875 -8.26712 -22.6615 255 255 255
-5.82541 18.687 -36.3697 255 255 255
-3.11234 -9.66973 -21.312 255 255 255
-3.9576 -0.00448157 -24.4272 255 255 255
-3.0111 -10.2664 -20.5838 255 255 255
-3.06916 -9.59916 -21.2649 255 255 255
-3.98326 0.579088 -24.6277 255 255 255
-4.58913 13.9503 -41.5578 255 255 255
-3.38715 -2.79956 -25.0445 255 255 255
-2.74307 -9.35067 -21.4141 255 255 255
-3.6376 2.55425 -26.8128 255 255 255
-2.62167 -10.2449 -20.6913 255 255 255
-3.28116 -0.961504 -23.2549 255 255 255
-2.64479 -8.75572 -22.194 255 255 255
-3.43261 2.93434 -27.2333 255 255 255
-5.29735 29.9131 -36.8597 255 255 255
-3.20461 -1.22521 -22.7333 255 255 255
-3.36268 2.42 -26.612 255 255 255
-2.55718 -8.72364 -22.2358 255 255 255
-5.04407 29.671 -36.5525 255 255 255
-2.50751 -8.19367 -22.9462 255 255 255
-2.42644 -9.51345 -21.3846 255 255 255
-3.70314 16.7476 -39.7708 255 255 255
-3.52274 16.1193 -40.3554 255 255 255
-2.3778 -8.22246 -22.7512 255 255 255
-2.31895 -9.49118 -21.3711 255 255 255
-3.2728 14.7133 -41.7612 255 255 255
-3.27612 16.1922 -40.5935 255 255 255
-2.77464 1.86722 -25.1661 255 255 255
-2.16948 -7.33846 -23.3803 255 255 255
-2.7159 3.39842 -27.8258 255 255 255
-2.66434 1.88012 -25.1118 255 255 255
-2.49001 15.876 -41.6885 255 255 255
-2.45479 3.88101 -28.3221 255 255 255
-2.52732 16.4803 -40.9413 255 255 255
-3.00061 21.8886 -35.0425 255 255 255
-2.1126 19.4252 -38.4301 255 255 255
-2.11092 19.506 -38.5545 255 255 255
-1.22891 7.71643 -40.2647 255 255 255
-1.52225 15.1777 -42.5048 255 255 255
-1.49301 -9.53528 -21.39 255 255 255
-1.67361 3.94017 -27.4735 255 255 255
-1.33206 -9.52187 -21.3304 255 255 255
-0.829213 16.6081 -42.7719 255 255 255
-1.27837 19.3977 -39.2517 255 255 255
-1.72613 22.1611 -36.1115 255 255 255
-0.788909 17.1471 -41.9048 255 255 255
-1.91935 29.3134 -37.2215 255 255 255
-1.22241 -9.27919 -21.6624 255 255 255
-0.969828 19.3815 -39.6007 255 255 255
-1.71935 28.8762 -36.7528 255 255 255
-1.09366 -9.28853 -21.6986 255 255 255
-1.54896 29.943 -37.419 255 255 255
-1.47631 31.0182 -37.8831 255 255 255
0.0887074 8.83461 -41.2584 255 255 255
-1.43657 30.0695 -37.4975 255 255 255
-1.36504 29.1743 -37.2293 255 255 255
-1.32276 28.0615 -36.7057 255 255 255
-1.27676 29.4154 -37.3327 255 255 255
0.191524 15.5385 -44.176 255 255 255
-0.938582 -8.93285 -22.089 255 255 255
-0.386871 19.2111 -40.2689 255 255 255
-1.31458 3.25845 -24.2468 255 255 255
-0.899286 -8.96226 -22.0706 255 255 255
-0.870881 -8.84797 -22.1965 255 255 255
-0.873378 -8.84048 -22.1882 255 255 255
-1.04989 29.1213 -37.1374 255 255 255
-1.07754 29.5957 -37.3677 255 255 255
-0.935154 27.0667 -36.5317 255 255 255
-0.847882 30.9176 -38.0382 255 255 255
-0.799352 31.2193 -38.1916 255 255 255
-0.77534 30.3092 -37.8149 255 255 255
-1.11244 -0.71733 -22.325 255 255 255
-0.730272 27.8511 -36.8934 255 255 255
0.93955 10.5735 -43.4173 255 255 255
-0.355871 22.0598 -37.1228 255 255 255
0.508174 17.5443 -42.2418 255 255 255
-0.56439 27.4851 -36.794 255 255 255
-0.596233 28.8449 -37.1767 255 255 255
-0.447281 28.0724 -37.1179 255 255 255
-0.385125 31.5412 -38.4401 255 255 255
-0.344833 31.8223 -38.5368 255 255 255
1.18741 9.31244 -41.9753 255 255 255
-0.162552 28.3356 -37.1377 255 255 255
0.0442376 34.8372 -40.8561 255 255 255
-0.108106 30.2772 -37.8531 255 255 255
-0.0889564 25.6878 -36.3141 255 255 255
-0.0889564 25.6878 -36.3141 255 255 255
-0.103627 27.3885 -36.801 255 255 255
1.304 16.8447 -43.5327 255 255 255
-0.0177007 26.5117 -36.5359 255 255 255
-0.0256688 28.3597 -37.0897 255 255 255
-0.0283638 31.4409 -38.1283 255 255 255
0.0336165 30.9679 -38.0486 255 255 255
-0.699653 -0.292702 -22.5563 255 255 255
0.107567 26.5586 -36.543 255 255 255
0.81803 20.7128 -39.8569 255 255 255
0.201057 31.5624 -38.6706 255 255 255
0.173981 28.4178 -37.2928 255 255 255
0.265824 31.0988 -38.5765 255 255 255
1.62415 8.95805 -41.8128 255 255 255
1.15647 19.2875 -41.3627 255 255 255
0.269017 29.4706 -37.6906 255 255 255
0.30889 32.0017 -38.7675 255 255 255
0.24824 25.3159 -36.2945 255 255 255
0.265442 25.3134 -36.2933 255 255 255
0.2353 29.3077 -37.2431 255 255 255
0.341184 30.8855 -37.9302 255 255 255
-0.617486 1.512 -22.6231 255 255 255
0.531028 31.6743 -38.7945 255 255 255
0.461867 28.3893 -37.2047 255 255 255
0.57419 29.5724 -37.7955 255 255 255
0.57419 29.5724 -37.7955 255 255 255
-0.529424 -1.25401 -21.8499 255 255 255
2.19706 11.0261 -43.9113 255 255 255
0.62353 28.7459 -37.2874 255 255 255
-0.48694 1.97859 -22.6213 255 255 255
0.856936 31.9404 -39.0873 255 255 255
-0.463188 0.682799 -22.3475 255 255 255
-0.395493 3.15134 -23.4035 255 255 255
2.78423 24.4884 -46.0646 255 255 255
-0.431725 -1.02864 -22.0455 255 255 255
0.771161 26.8542 -36.9434 255 255 255
0.771161 26.8542 -36.9434 255 255 255
0.832856 29.36 -37.7191 255 255 255
2.07897 8.55277 -41.0309 255 255 255
1.63342 20.5711 -40.2334 255 255 255
0.887674 25.4649 -36.5201 255 255 255
1.05593 25.7789 -36.8896 255 255 255
2.06638 19.5736 -41.9112 255 255 255
-0.301662 2.17696 -22.6403 255 255 255
1.27517 32.176 -39.232 255 255 255
0.00823243 -9.44122 -21.649 255 255 255
1.35086 32.4099 -39.365 255 255 255
2.71276 10.4208 -43.2474 255 255 255
-0.206053 1.53792 -22.3569 255 255 255
3.27452 15.1896 -47.0365 255 255 255
2.76989 9.75443 -42.333 255 255 255
2.75527 9.74433 -42.2849 255 255 255
1.93075 21.6251 -39.6021 255 255 255
1.31166 24.6586 -36.3695 255 255 255
1.4048 29.6113 -37.757 255 255 255
1.6643 32.6893 -40.1053 255 255 255
1.71074 32.4929 -39.5082 255 255 255
0.105752 -3.92404 -22.4854 255 255 255
2.58958 20.0709 -41.7205 255 255 255
1.64456 25.7071 -36.7596 255 255 255
1.61624 24.4337 -36.1849 255 255 255
1.91973 32.3558 -39.4533 255 255 255
1.92166 32.4215 -39.5482 255 255 255
2.04579 32.6503 -39.6853 255 255 255
1.79457 28.87 -36.932 255 255 255
0.406738 -5.93306 -22.9231 255 255 255
0.0771885 2.02843 -22.335 255 255 255
3.32373 9.55289 -42.3554 255 255 255
3.16585 19.2525 -42.8934 255 255 255
2.24289 32.4141 -39.5295 255 255 255
2.24349 32.4527 -39.5847 255 255 255
0.124826 1.49684 -22.1465 255 255 255
2.64322 22.3591 -39.7644 255 255 255
2.09063 25.0724 -36.6122 255 255 255
1.86153 24.637 -35.3157 255 255 255
2.14528 25.8845 -37.0891 255 255 255
2.05387 25.474 -35.9996 255 255 255
2.54636 32.2953 -39.4829 255 255 255
0.371269 2.95355 -22.822 255 255 255
0.652643 -6.10703 -22.7505 255 255 255
3.75735 8.61186 -41.3319 255 255 255
2.63391 26.1082 -37.1182 255 255 255
3.63239 21.2179 -41.5982 255 255 255
4.9019 15.5455 -47.7752 255 255 255
0.509789 -0.645244 -22.0579 255 255 255
2.88299 27.2403 -37.9021 255 255 255
2.84138 25.1279 -36.9536 255 255 255
2.80901 28.7689 -37.3547 255 255 255
0.899203 -8.72642 -22.4329 255 255 255
4.67162 18.3989 -45.0669 255 255 255
3.19558 27.6435 -38.0883 255 255 255
3.89875 22.0781 -40.8796 255 255 255
3.15154 25.1987 -37.0169 255 255 255
0.680645 0.767507 -21.8405 255 255 255
4.50133 21.0098 -42.5701 255 255 255
3.4774 26.1444 -37.7927 255 255 255
3.57329 27.0284 -38.1691 255 255 255
3.53093 26.9153 -38.0018 255 255 255
3.53093 26.9153 -38.0018 255 255 255
0.791428 -0.406861 -21.8675 255 255 255
3.81898 24.0597 -38.7121 255 255 255
3.61265 25.5008 -37.1514 255 255 255
5.10024 19.6065 -43.8685 255 255 255
5.00183 20.5974 -43.2864 255 255 255
1.21274 -8.90259 -22.2967 255 255 255
5.10363 20.645 -43.1066 255 255 255
0.96242 1.73761 -21.9505 255 255 255
5.3194 19.6472 -43.9485 255 255 255
1.01857 -3.94331 -21.7267 255 255 255
5.19798 20.556 -43.1677 255 255 255
4.11707 27.5218 -38.2904 255 255 255
